ncols         157
nrows         99
xllcorner     183648.0321
yllcorner     517496.9598
cellsize      30.000000000019
NODATA_value  -9999
4.214337 4.118451 3.97636 3.713849 3.313678 2.80251 2.291341 1.780172 1.269004 0.7578348 0.246666 0 0 0 0 0 0 0 0 0 0 0 0 0 0 0 0 0 0 0 0 0 0 0 0.6517886 1.431638 1.967516 2.345054 2.722593 3.100131 3.477669 3.855207 4.232745 4.610283 4.987822 5.389227 5.8425 6.297128 6.744342 7.183582 7.627688 8.064745 8.50857 8.925943 9.338142 9.732078 12.11407 19.36233 26.99862 35.80239 40 34.56965 24.70633 16.97095 15.97928 19.67093 25.73775 29.51179 30 29.31749 17.92465 10 10 10 10 10 10 15.95593 23.2952 29.76072 34.10016 35.29914 30.63698 20 20 20 20 20 18.2212 14.3032 10.57108 10 10 10 10 10 10 10 10 10 10 10 10 10 10 10 10 10 10 10 10 10 10 10 10 10 10 10 10 10.11111 11.20578 12.30044 13.3951 14.48976 15.28653 14.96486 14.57094 14.59283 14.19018 13.89744 13.43145 12.83579 12.05878 11.28178 10.39609 10 10 10 10 10 10 10 10 10 10 10 10 10 10 10 10 10 10 10 10 10 10
3.543893 3.335146 3.239555 3.111311 2.861719 2.615902 2.104733 1.593564 1.082396 0.5712268 0.06005808 0 0 0 0 0 0 0 0 0 0 0 0 0 0 0 0 0 0 0 0 0 0 0 0.5319645 1.145167 1.522705 1.900243 2.277781 2.65532 3.042901 3.496491 3.951118 4.405746 4.855078 5.294318 5.742791 6.187476 6.627657 7.073773 7.504867 7.913019 8.34611 8.737628 9.12434 9.509204 9.838517 14.08364 22.10523 31.87929 38.41181 29.81373 20.94537 13.03006 11.42368 15.11899 20.01007 24.71924 27.63998 26.74397 18.34475 10 10 10 10 10 10 10.17902 17.82213 24.23955 28.78913 29.63817 25.43971 19.01241 16.66485 16.25233 15.83981 19.86208 17.66604 14.40252 10.86941 10 10 10 10 10 10 10 10 10 10 10 10 10 10 10 10 10 10 10 10 10 10 10 10 10 10 10 10 10 10.2894 11.38406 12.47872 13.57339 14.14164 13.80556 13.41165 13.29349 12.9074 12.54203 12.10506 11.63908 10.9341 10.15709 10 10 10 10 10 10 10 10 10 10 10 10 10 10 10 10 10 10 10 10 10 10 10
2.723793 2.63437 2.455954 2.360659 2.246262 2.072291 1.871141 1.406956 0.8957875 0.3846188 0 0 0 0 0 0 0 0 0 0 0 0 0 0 0 0 0 0 0 0 0 0 0 0 0.3228177 0.7003559 1.150482 1.605109 2.059737 2.514364 2.965814 3.408371 3.857895 4.307418 4.746746 5.192861 5.638977 6.08379 6.487981 6.929597 7.347425 7.759218 8.137785 8.547628 8.880638 9.170138 9.488831 9.89575 15.91744 23.93933 29.71881 25.62033 17.47252 10 10 10.37488 15.50516 20.36453 21.14916 19.81434 17.00119 10 10 10 10 10 10 10 11.7011 19.37013 23.19235 23.24142 21.55347 17.41179 13.61289 11.43397 11.49357 14.90631 15.40255 13.06057 10.71859 10 10 10 10 10 10 10 10 10 10 10 10 10 10 10 10 10 10 10 10 10 10 10 10 10 10 10 10 10 10 10.46768 11.56235 12.65701 12.99676 12.64627 12.25236 11.99415 11.62462 11.19376 10.77867 10.31269 10 10 10 10 10 10 10 10 10 10 10 10 10 10 10 10 10 10 10 10 10 10 10 10 10
1.880748 1.81427 1.705459 1.576762 1.481763 1.381213 1.207242 1.019011 0.7091796 0.1980109 0 0 0 0 0 0 0 0 0 0 0 0 0 0 0 0 0 0 0 0 0 0 0 0 0.1683553 0.6229828 1.07655 1.523474 1.972998 2.422521 2.865834 3.311949 3.758065 4.20418 4.650296 5.066905 5.504474 5.946176 6.34874 6.770803 7.164322 7.579082 7.930137 8.219638 8.509138 8.819811 9.143572 9.448584 9.914517 14.40832 18.34995 18.99186 13.61574 10 10 10 11.45003 15.9218 15.40039 13.93712 11.8094 10 10 10 10 10 10 10 10 10.58089 12.98455 13.1447 13.66656 12.58365 10.43557 10 10 10.07814 11.74924 10.35791 10 10 10 10 10 10 10 10 10 10 10 10 10 10 10 10 10 10 10 10 10 10 10 10 10 10 10 10 10 10 10 10 10.64597 11.74063 11.85187 11.48698 11.09307 10.69915 10.34184 10 10 10 10 10 10 10 10 10 10 10 10 10 10 10 10 10 10 10 10 10 10 10 10 10 10 10 10
1.005383 0.9790278 0.9047465 0.7875136 0.69757 0.6028672 0.5030815 0.342193 0.166881 0.0114029 0 0 0 0 0 0 0 0 0 0 0 0 0 0 0 0 0 0 0 0 0 0 0 0 0.08810093 0.5376245 0.9849214 1.431037 1.877153 2.323268 2.769384 3.215499 3.645828 4.07935 4.521052 4.962754 5.367236 5.781824 6.190859 6.604681 6.979636 7.269137 7.558638 7.848138 8.137639 8.391394 8.798312 9.021542 9.448142 9.752023 10.30068 11.56238 10 10 10 10 10 10.29305 9.952907 9.835328 9.703404 9.684599 9.665793 9.646988 9.628182 9.609378 9.590572 9.571767 9.552961 9.670959 10 10 10 10 10 10 10 10 10 10 10 10 10 10 10 10 10 10 10 10 10 10 10 10 10 10 10 10 10 10 10 10 10 10 10 10 10 10 10 10 10 10 10 10.82425 10.70698 10.32769 10 10 10 10 10 10 10 10 10 10 10 10 10 10 10 10 10 10 10 10 10 10 10 10 10 10 10 10 10 10 10
0.1078168 0.1280493 0.07730745 0 0 0.01291067 0.07803278 0.1345026 0.1581742 0.2233073 0.2870096 0.2864849 0.2864742 0.2875229 0.2636675 0.2378398 0.1759115 0.1049883 0.06373675 0.05757785 0 0 0 0 0 0 0 0 0 0 0 0 0 0 0 0.4423562 0.8884718 1.334587 1.780703 2.224751 2.654226 3.095928 3.53763 3.964087 4.388826 4.792844 5.216557 5.630281 6.01939 6.318636 6.608137 6.897637 7.187138 7.476639 7.801104 8.046134 8.241764 8.59228 8.962213 9.241524 9.416348 9.496439 9.449128 9.443938 9.438748 9.433559 9.42837 9.515075 9.422617 9.323606 9.236862 9.218057 9.199252 9.180447 9.161641 9.142836 9.12403 9.105225 9.165185 9.50386 10 10 10 10 10 10 10 10 10 10 10 10 10 10 10 10 10 10 10 10 10 10 10 10 10 10 10 10 10 10 10 10 10 10 10 10 10 10 10 10 10 10 10 10 10 10 10 10 10 10 10 10 10 10 10 10 10 10 10 10 10 10 10 10 10 10 10 10 10 10 10 10 10 10 10 10 10
0.4349863 0.4214464 0.4513717 0.5197716 0.5870068 0.6662481 0.7144734 0.7695674 0.618993 0.6824378 0.7468013 0.7462765 0.7460995 0.7449437 0.7191161 0.6932884 0.6207812 0.5498313 0.5157961 0.4892658 0.1179465 0 0 0 0 0 0 0 0 0 0 0 0 0 0 0.3459066 0.7920222 1.229103 1.670805 2.112506 2.554208 2.975253 3.410416 3.817578 4.242087 4.65588 5.057814 5.368135 5.657636 5.947137 6.236638 6.526138 6.815639 7.10514 7.293955 7.690567 7.687327 8.144335 8.458307 8.72424 8.809895 8.863587 8.823407 8.818217 8.813027 8.807838 8.813882 8.971261 8.892327 8.826574 8.770321 8.751515 8.73271 8.713904 8.695099 8.676293 8.657489 8.644384 8.858794 9.398472 10 10 10 10 10 10 10 10 10 10 10 10 10 10 10 10 10 10 10 10 10 10 10 10 10 10 10 10 10 10 10 10 10 10 10 10 10 10 10 10 10 10 10 10 10 10 10 10 10 10 10 10 10 10 10 10 10 10 10 10 10 10 10 10 10 10 10 10 10 10 10 10 10 10 10 10 10
1.089391 1.075852 1.109202 1.181997 1.241526 1.293242 1.350914 1.31606 1.078539 1.141568 1.206593 1.206068 1.205725 1.200392 1.174565 1.139386 1.063511 0.9907015 0.9701029 0.8213639 0.4500446 0.07872532 0 0 0 0 0 0 0 0 0 0 0 0 0 0.2456808 0.6873827 1.129085 1.570786 1.996843 2.432006 2.844115 3.267617 3.68148 4.090629 4.417634 4.707135 4.996636 5.286137 5.575637 5.865138 6.154639 6.444139 6.725687 6.948696 7.103967 7.260285 7.664589 7.948647 8.15925 8.203442 8.230707 8.197686 8.192496 8.187307 8.182117 8.370617 8.427446 8.396059 8.349874 8.303779 8.284973 8.266168 8.247363 8.228558 8.209752 8.190947 8.325241 8.551835 9.293082 10 10 10 10 10 10 10 10 10 10 10 10 10 10 10 10 10 10 10 10 10 10 10 10 10 10 10 10 10 10 10 10 10 10 10 10 10 10 10 10 10 10 10 10 10 10 10 10 10 10 10 10 10 10 10 10 10 10 10 10 10 10 10 10 10 10 10 10 10 10 10 10 10 10 10 10 10
1.743797 1.72079 1.770923 1.844222 1.896045 1.929682 1.959507 1.80029 1.5513 1.600699 1.665832 1.66586 1.66535 1.655841 1.630013 1.584255 1.508354 1.443365 1.42441 1.153462 0.7821427 0.4108234 0.03950413 0 0 0 0 0 0 0 0 0 0 0 0 0.1456628 0.5832704 1.018433 1.450328 1.870651 2.293147 2.70708 3.116229 3.467134 3.756635 4.046135 4.335636 4.625137 4.914638 5.204138 5.493639 5.783139 6.073724 6.213 6.55277 6.517365 6.828442 7.164592 7.427825 7.537062 7.596989 7.597776 7.571965 7.566776 7.561586 7.564254 7.928191 7.949461 7.904553 7.856042 7.837237 7.818432 7.799626 7.780821 7.762016 7.74321 7.780655 8.01885 8.267125 9.187693 10 10 10 10 10 10 10 10 10 10 10 10 10 10 10 10 10 10 10 10 10 10 10 10 10 10 10 10 10 10 10 10 10 10 10 10 10 10 10 10 10 10 10 10 10 10 10 10 10 10 10 10 10 10 10 10 10 10 10 10 10 10 10 10 10 10 10 10 10 10 10 10 10 10 10 10 10
2.398202 2.374299 2.433149 2.470141 2.511534 2.566123 2.533509 2.28452 2.03553 2.059829 2.124962 2.125651 2.124975 2.11129 2.085462 2.029125 1.953197 1.882628 1.856879 1.48556 1.114241 0.7429215 0.3716022 0.0002829485 0 0 0 0 0 0 0 0 0 0 0 0.04002337 0.4708336 0.8971882 1.318677 1.732679 2.141829 2.516633 2.806134 3.095634 3.385135 3.674636 3.964137 4.253637 4.543138 4.832639 5.122139 5.41164 5.646944 5.851258 5.966169 5.930764 6.364349 6.655771 6.883244 6.914873 6.986073 6.964846 6.946244 6.941055 6.935865 7.11463 7.427036 7.41917 7.388634 7.389501 7.370695 7.35189 7.333085 7.314279 7.295474 7.276669 7.485297 7.712459 8.161736 9.082303 10 10 10 10 10 10 10 10 10 10 10 10 10 10 10 10 10 10 10 10 10 10 10 10 10 10 10 10 10 10 10 10 10 10 10 10 10 10 10 10 10 10 10 10 10 10 10 10 10 10 10 10 10 10 10 10 10 10 10 10 10 10 10 10 10 10 10 10 10 10 10 10 10 10 10 10 10
3.052607 3.03213 3.095374 3.12466 3.144891 3.148823 3.017739 2.768749 2.51976 2.51896 2.584093 2.585443 2.584601 2.566738 2.54091 2.473994 2.386738 2.336935 2.188977 1.817658 1.446339 1.07502 0.7037004 0.332381 0 0 0 0 0 0 0 0 0 0 0 0 0.344207 0.7582791 1.167428 1.566132 1.855633 2.145134 2.434634 2.724135 3.013636 3.303137 3.592637 3.882138 4.171638 4.461139 4.75064 5.055017 5.134477 5.414972 5.379568 5.499029 5.870876 6.131411 6.292874 6.292685 6.366216 6.325713 6.320524 6.315334 6.314627 6.675594 6.899214 6.888881 6.947279 6.922959 6.904153 6.885348 6.866543 6.847737 6.828932 6.951744 7.178906 7.406068 8.056346 8.976913 9.897481 10 10 10 10 10 10 10 10 10 10 10 10 10 10 10 10 10 10 10 10 10 10 10 10 10 10 10 10 10 10 10 10 10 10 10 10 10 10 10 10 10 10 10 10 10 10 10 10 10 10 10 10 10 10 10 10 10 10 10 10 10 10 10 10 10 10 10 10 10 10 10 10 10 10 10 10
3.707012 3.68996 3.7576 3.77918 3.781332 3.750958 3.501969 3.252979 3.003989 2.97809 3.043223 3.045234 3.044226 3.022187 2.992599 2.911721 2.822993 2.791242 2.521075 2.149756 1.778437 1.407118 1.035798 0.6644791 0.2931599 0 0 0 0 0 0 0 0 0 0 0 0.1930279 0.6021771 0.9051323 1.194633 1.484134 1.773634 2.063135 2.352636 2.642136 2.931637 3.221138 3.510638 3.800139 4.08964 4.37914 4.5682 4.753821 4.828371 4.792966 5.062028 5.362894 5.586829 5.670686 5.670496 5.739087 5.699992 5.694803 5.689613 5.858643 6.236559 6.3554 6.412942 6.480203 6.456417 6.437612 6.418807 6.400001 6.381196 6.392128 6.645353 6.872515 7.08024 7.950956 8.871524 9.792091 10 10 10 10 10 10 10 10 10 10 10 10 10 10 10 10 10 10 10 10 10 10 10 10 10 10 10 10 10 10 10 10 10 10 10 10 10 10 10 10 10 10 10 10 10 10 10 10 10 10 10 10 10 10 10 10 10 10 10 10 10 10 10 10 10 10 10 10 10 10 10 10 10 10 10 10
4.361417 4.347791 4.373503 4.3601 4.364813 4.235188 3.986198 3.737209 3.488219 3.437221 3.502354 3.505026 3.503851 3.477635 3.437469 3.356564 3.275656 3.224493 2.853174 2.481854 2.110535 1.739216 1.367897 0.9965773 0.625258 0.2539387 0 0 0 0 0 0 0 0 0 0 0 0.2441322 0.5336329 0.8231336 1.112634 1.402135 1.691636 1.981136 2.270637 2.560138 2.849638 3.139139 3.42864 3.71814 4.003686 4.055954 4.277174 4.24177 4.206365 4.579071 4.834996 5.042247 5.048497 5.048307 5.106236 5.074271 5.069082 5.065 5.419608 5.794003 5.919909 5.973778 6.008681 5.989875 5.97107 5.952265 5.933459 5.914654 6.1118 6.338962 6.566124 6.924999 7.845567 8.766134 9.686702 10 10 10 10 10 10 10 10 10 10 10 10 10 10 10 10 10 10 10 10 10 10 10 10 10 10 10 10 10 10 10 10 10 10 10 10 10 10 10 10 10 10 10 10 10 10 10 10 10 10 10 10 10 10 10 10 10 10 10 10 10 10 10 10 10 10 10 10 10 10 10 10 10 10 10 10
5.015822 5.008751 5.007795 4.996541 4.968408 4.719418 4.470428 4.221438 3.972449 3.896351 3.961484 3.964818 3.963477 3.933084 3.882338 3.801407 3.703767 3.556591 3.185272 2.813952 2.442633 2.071314 1.699995 1.328675 0.9573561 0.5860368 0.2147175 0 0 0 0 0 0 0 0 0 0 0 0.1621335 0.4516342 0.7411349 1.030636 1.320136 1.609637 1.899138 2.188638 2.478139 2.76764 3.05714 3.346641 3.489457 3.656383 3.690573 3.655169 3.737773 4.070017 4.290414 4.426499 4.426309 4.426118 4.473385 4.448551 4.443361 4.602656 4.980572 5.302287 5.415724 5.457657 5.542139 5.523334 5.504528 5.485723 5.466918 5.568204 5.805409 6.032571 6.259734 6.81961 7.740177 8.660745 9.581312 10 10 10 10 10 10 10 10 10 10 10 10 10 10 10 10 10 10 10 10 10 10 10 10 10 10 10 10 10 10 10 10 10 10 10 10 10 10 10 10 10 10 10 10 10 10 10 10 10 10 10 10 10 10 10 10 10 10 10 10 10 10 10 10 10 10 10 10 10 10 10 10 10 10 10 10
5.670228 5.670977 5.662314 5.632982 5.452637 5.203648 4.954658 4.705668 4.456679 4.355482 4.420615 4.424073 4.417918 4.388533 4.324022 4.208781 4.158073 3.888689 3.51737 3.146051 2.774731 2.403412 2.032093 1.660774 1.289454 0.9181349 0.5468156 0.1754963 0 0 0 0 0 0 0 0 0 0 0 0.0801348 0.3696355 0.6591362 0.9486368 1.238137 1.527638 1.817139 2.10664 2.39614 2.685641 2.924943 2.977431 3.139377 3.103972 3.068568 3.280555 3.538581 3.745832 3.80431 3.80412 3.80393 3.840513 3.82283 3.81764 4.16362 4.541536 4.827168 4.885435 5.057831 5.075597 5.056792 5.037986 5.019181 5.012971 5.271856 5.499018 5.726181 5.953343 6.71422 7.634788 8.555355 9.475923 10 10 10 10 10 10 10 10 10 10 10 10 10 10 10 10 10 10 10 10 10 10 10 10 10 10 10 10 10 10 10 10 10 10 10 10 10 10 10 10 10 10 10 10 10 10 10 10 10 10 10 10 10 10 10 10 10 10 10 10 10 10 10 10 10 10 10 10 10 10 10 10 10 10 10 10
6.302299 6.333202 6.21175 6.162043 5.936867 5.687877 5.438888 5.189898 4.940908 4.814612 4.879745 4.882051 4.869809 4.843981 4.75993 4.655284 4.592106 4.220788 3.849468 3.478149 3.106829 2.73551 2.364191 1.992872 1.621552 1.250233 0.8789137 0.5075944 0.1362751 0 0 0 0 0 0 0 0 0 0 0 0 0.2876368 0.5771375 0.8666381 1.156139 1.445639 1.73514 2.024641 2.314142 2.410713 2.558946 2.552775 2.517371 2.481966 2.777141 2.993999 3.182312 3.182122 3.181931 3.181741 3.204362 3.197109 3.346669 3.724585 4.1025 4.283919 4.429826 4.578904 4.609056 4.59025 4.571445 4.552639 4.738303 4.965465 5.192627 5.41979 5.688263 6.60883 7.529398 8.449965 9.370533 10 10 10 10 10 10 10 10 10 10 10 10 10 10 10 10 10 10 10 10 10 10 10 10 10 10 10 10 10 10 10 10 10 10 10 10 10 10 10 10 10 10 10 10 10 10 10 10 10 10 10 10 10 10 10 10 10 10 10 10 10 10 10 10 10 10 10 10 10 10 10 10 10 10 10 10
6.928549 6.89093 6.848191 6.670086 6.421097 6.172107 5.923117 5.674128 5.425138 5.280802 5.338876 5.341304 5.325257 5.290682 5.204773 5.077672 4.924205 4.552886 4.181566 3.810247 3.438928 3.067608 2.696289 2.32497 1.95365 1.582331 1.211012 0.8396925 0.4683732 0.09705395 0 0 0 0 0 0 0 0 0 0 0 0 0.2056381 0.4951387 0.7846394 1.07414 1.363641 1.653141 1.846199 1.898907 2.001579 1.966174 1.93077 1.976517 2.242166 2.449417 2.560123 2.559933 2.559743 2.559553 2.576578 2.571388 2.907634 3.285549 3.659816 3.850191 4.018406 4.171646 4.142514 4.123708 4.104903 4.177392 4.431912 4.659074 4.886237 5.113399 5.582873 6.503441 7.424008 8.344576 9.265143 10 10 10 10 10 10 10 10 10 10 10 10 10 10 10 10 10 10 10 10 10 10 10 10 10 10 10 10 10 10 10 10 10 10 10 10 10 10 10 10 10 10 10 10 10 10 10 10 10 10 10 10 10 10 10 10 10 10 10 10 10 10 10 10 10 10 10 10 10 10 10 10 10 10 10 10
7.58638 7.545449 7.351547 7.154316 6.905326 6.656337 6.407347 6.158358 5.909368 5.747475 5.798006 5.800929 5.780706 5.735552 5.628876 5.524905 5.256303 4.884984 4.513664 4.142345 3.771026 3.399706 3.028387 2.657068 2.285748 1.914429 1.54311 1.171791 0.8004714 0.4291521 0.05783277 0 0 0 0 0 0 0 0 0 0 0 0 0.1236393 0.41314 0.7026407 0.9921414 1.281685 1.33197 1.450382 1.414978 1.379573 1.344168 1.484264 1.697584 1.904835 1.937934 1.937744 1.937554 1.937364 1.950857 2.090682 2.468598 2.846514 3.180706 3.412278 3.526882 3.694777 3.675972 3.657166 3.638361 3.898359 4.125521 4.352684 4.579846 4.807008 5.477484 6.398051 7.318619 8.239186 9.159754 10 10 10 10 10 10 10 10 10 10 10 10 10 10 10 10 10 10 10 10 10 10 10 10 10 10 10 10 10 10 10 10 10 10 10 10 10 10 10 10 10 10 10 10 10 10 10 10 10 10 10 10 10 10 10 10 10 10 10 10 10 10 10 10 10 10 10 10 10 10 10 10 10 10 10 10
8.24658 8.063399 7.887535 7.638546 7.389556 7.140566 6.891577 6.642587 6.393598 6.214147 6.257137 6.260554 6.236155 6.172828 6.034913 5.95972 5.588401 5.217082 4.845762 4.474443 4.103124 3.731804 3.360485 2.989166 2.617846 2.246527 1.875208 1.503889 1.132569 0.7612501 0.3910681 0 0 0 0 0 0 0 0 0 0 0 0 0 0.04164062 0.3311413 0.620642 0.7674561 0.8203842 0.8637812 0.8283765 0.7929719 0.7575673 0.945751 1.153002 1.315936 1.315746 1.315556 1.315366 1.315175 1.325136 1.651646 2.029562 2.407478 2.725131 2.881989 3.122859 3.228235 3.20943 3.190625 3.356204 3.591968 3.81913 4.046293 4.273455 4.48952 5.372095 6.292662 7.21323 8.133797 9.054364 9.974932 10 10 10 10 10 10 10 10 10 10 10 10 10 10 10 10 10 10 10 10 10 10 10 10 10 10 10 10 10 10 10 10 10 10 10 10 10 10 10 10 10 10 10 10 10 10 10 10 10 10 10 10 10 10 10 10 10 10 10 10 10 10 10 10 10 10 10 10 10 10 10 10 10 10 10
8.848754 8.61727 8.371765 8.122775 7.873786 7.624796 7.375807 7.126817 6.877827 6.677086 6.716267 6.72018 6.691603 6.608139 6.480216 6.291818 5.920499 5.54918 5.17786 4.806541 4.435222 4.063902 3.692583 3.321264 2.949945 2.578625 2.207306 1.835987 1.467929 1.047515 0.7273283 0.3731965 0.01492862 0 0 0 0 0 0 0 0 0 0 0 0 0 0.2029419 0.2532853 0.3125846 0.27718 0.2417753 0.2063707 0.192974 0.4011691 0.6084203 0.693747 0.693557 0.6933669 0.6931769 0.6929868 0.8346953 1.212611 1.590526 1.968442 2.214202 2.44671 2.678294 2.761693 2.742888 2.788864 3.058415 3.285577 3.51274 3.739902 3.967064 4.346138 5.266705 6.187273 7.10784 8.028407 8.948975 9.869542 10 10 10 10 10 10 10 10 10 10 10 10 10 10 10 10 10 10 10 10 10 10 10 10 10 10 10 10 10 10 10 10 10 10 10 10 10 10 10 10 10 10 10 10 10 10 10 10 10 10 10 10 10 10 10 10 10 10 10 10 10 10 10 10 10 10 10 10 10 10 10 10 10 10 10
9.415914 9.104984 8.855995 8.607005 8.358016 8.109026 7.860036 7.611047 7.362057 7.14253 7.175397 7.179805 7.146524 7.046119 6.891737 6.623916 6.252597 5.881278 5.509959 5.138639 4.76732 4.396001 4.024682 3.653362 3.282043 2.910723 2.544789 2.148067 1.775526 1.466836 1.138038 0.7797703 0.4215024 0.06323444 0 0 0 0 0 0 0 0 0 0 0 0 0 0 0 0 0 0 0 0 0.0638385 0.07155841 0.07136836 0.07117831 0.07098825 0.0707982 0.3956596 0.7735752 1.151491 1.525628 1.780474 2.03529 2.296985 2.295152 2.276346 2.524862 2.752024 2.979187 3.206349 3.433511 3.660674 4.240748 5.161315 6.081883 7.00245 7.923018 8.843585 9.764153 10 10 10 10 10 10 10 10 10 10 10 10 10 10 10 10 10 10 10 10 10 10 10 10 10 10 10 10 10 10 10 10 10 10 10 10 10 10 10 10 10 10 10 10 10 10 10 10 10 10 10 10 10 10 10 10 10 10 10 10 10 10 10 10 10 10 10 10 10 10 10 10 10 10 10
9.897853 9.589214 9.340224 9.091235 8.842245 8.593256 8.344266 8.095277 7.846287 7.607975 7.634528 7.63943 7.588765 7.451711 7.327334 6.956015 6.584695 6.213376 5.842057 5.470737 5.099418 4.728099 4.35678 3.98546 3.62165 3.235541 2.851303 2.50821 2.198843 1.90288 1.544612 1.186344 0.8280761 0.4698082 0.1115403 0 0 0 0 0 0 0 0 0 0 0 0 0 0 0 0 0 0 0 0 0 0 0 0 0 0 0.3345395 0.712455 1.06038 1.346746 1.596107 1.847415 1.82861 1.96473 2.218471 2.445633 2.672796 2.899958 3.12712 3.354283 4.135358 5.055926 5.976493 6.897061 7.817628 8.738195 9.658763 10 10 10 10 10 10 10 10 10 10 10 10 10 10 10 10 10 10 10 10 10 10 10 10 10 10 10 10 10 10 10 10 10 10 10 10 10 10 10 10 10 10 10 10 10 10 10 10 10 10 10 10 10 10 10 10 10 10 10 10 10 10 10 10 10 10 10 10 10 10 10 10 10 10 10
13.72573 10 9.824454 9.575464 9.326475 9.077485 8.828496 8.579506 8.330517 8.081527 8.093658 8.091915 8.021634 7.867204 7.659432 7.288113 6.916793 6.545474 6.174155 5.802835 5.431516 5.060197 4.69851 4.323472 3.953625 3.583987 3.240894 2.930851 2.660789 2.309454 1.951186 1.592918 1.23465 0.8763819 0.518114 0.1598461 0 0 0 0 0 0 0 0 0 0 0 0 0 0 0 0 0 0 0 0 0 0 0 0 0 0 0.2734194 0.6003823 0.8785425 1.187886 1.380874 1.400337 1.684918 1.91208 2.139243 2.366405 2.593567 2.82073 3.109401 4.029969 4.950536 5.871104 6.791671 7.712239 8.632807 9.553373 10 10 10 10 10 10 10 10 10 10 10 10 10 10 10 10 10 10 10 10 10 10 10 10 10 10 10 10 10 10 10 10 10 10 10 10 10 10 10 10 10 10 10 10 10 10 10 10 10 10 10 10 10 10 10 10 10 10 10 10 10 10 10 10 10 10 10 10 10 10 10 10 10 10 10
13.79443 10 10 10 9.810705 9.561715 9.312725 9.063736 8.814746 8.565757 8.552789 8.540445 8.456348 8.275875 7.99153 7.620211 7.248891 6.877572 6.506253 6.134933 5.775371 5.410841 5.038809 4.659765 4.316671 3.973578 3.662859 3.4151 3.074295 2.716027 2.357759 1.999492 1.641224 1.282956 0.9246877 0.5201269 0.1615345 0 0 0 0 0 0 0 0 0 0 0 0 0 0 0 0 0 0 0 0 0 0 0 0 0 0 0.1444852 0.4635934 0.792056 0.9143318 1.144204 1.378527 1.60569 1.832852 2.060014 2.287177 2.514339 3.004012 3.924579 4.845147 5.765714 6.686282 7.606849 8.527417 9.447985 10 10 10 10 10 10 10 10 10 10 10 10 10 10 10 10 10 10 10 10 10 10 10 10 10 10 10 10 10 10 10 10 10 10 10 10 10 10 10 10 10 10 10 10 10 10 10 10 10 10 10 10 10 10 10 10 10 10 10 10 10 10 10 10 10 10 10 10 10 10 10 10 10 10 10
11.6011 10 10 10 10 10 9.796955 9.547966 9.298976 9.049987 9.011919 8.994674 8.870918 8.694947 8.323628 7.952309 7.580989 7.20967 6.852232 6.498105 6.125395 5.759183 5.392449 5.049356 4.706263 4.394866 4.155655 3.836895 3.480869 3.122601 2.764333 2.406065 2.047797 1.689529 1.277824 0.8850752 0.6153485 0.3921707 0.1992992 0.04071387 0 0 0 0 0 0 0 0 0 0 0 0 0 0 0 0 0 0 0 0 0 0 0 0 0.05217315 0.3956865 0.5741282 0.844974 1.072136 1.299299 1.526461 1.753623 1.980786 2.207948 2.898622 3.81919 4.739757 5.660325 6.580892 7.50146 8.422028 9.342595 10 10 10 10 10 10 10 10 10 10 10 10 10 10 10 10 10 10 10 10 10 10 10 10 10 10 10 10 10 10 10 10 10 10 10 10 10 10 10 10 10 10 10 10 10 10 10 10 10 10 10 10 10 10 10 10 10 10 10 10 10 10 10 10 10 10 10 10 10 10 10 10 10 10 10
10.97471 10 10 10 10 10 10 10 9.783206 9.534216 9.475939 9.441978 9.273753 9.027045 8.655726 8.284407 7.929092 7.585369 7.213326 6.844368 6.468226 6.125133 5.78204 5.438947 5.126874 4.887663 4.594432 4.245711 3.887443 3.529175 3.170907 2.812639 2.454151 2.037323 1.63634 1.284133 1.067885 0.8550527 0.6849465 0.5510035 0.3717889 0.299702 0.1956604 0.09161883 0 0 0 0 0 0 0 0 0 0 0 0 0 0 0 0 0 0 0 0 0 0.01180916 0.3114209 0.5385832 0.7657456 0.9929079 1.22007 1.447233 1.674395 1.8988 2.793233 3.7138 4.634367 5.554935 6.475502 7.39607 8.316638 9.237206 10 10 10 10 10 10 10 10 10 10 10 10 10 10 10 10 10 10 10 10 10 10 10 10 10 10 10 10 10 10 10 10 10 10 10 10 10 10 10 10 10 10 10 10 10 10 10 10 10 10 10 10 10 10 10 10 10 10 10 10 10 10 10 10 10 10 10 10 10 10 10 10 10 10 10
10.30397 10 10 10 10 10 10 10 10 10 9.942612 9.87044 9.678418 9.359143 9.005953 8.672633 8.301257 7.929551 7.564742 7.20091 6.857817 6.514724 6.171631 5.858881 5.619671 5.349371 5.010552 4.652285 4.294016 3.935749 3.577481 3.215611 2.792598 2.387605 2.014112 1.737947 1.51702 1.333507 1.184347 0.9056231 0.8089371 0.7122605 0.608219 0.5041774 0.3947099 0.2227937 0.05087745 0 0 0 0 0 0 0 0 0 0 0 0 0 0 0 0 0 0 0 0.005030086 0.2321925 0.4593548 0.6865172 0.9136795 1.140842 1.368004 1.767276 2.687843 3.608411 4.528978 5.449546 6.370113 7.290681 8.211248 9.131816 10 10 10 10 10 10 10 10 10 10 10 10 10 10 10 10 10 10 10 10 10 10 10 10 10 10 10 10 10 10 10 10 10 10 10 10 10 10 10 10 10 10 10 10 10 10 10 10 10 10 10 10 10 10 10 10 10 10 10 10 10 10 10 10 10 10 10 10 10 10 10 10 10 10 10
11.25568 10 10 10 10 10 10 10 13.63284 23.6215 26.7605 22.82277 13.28193 9.757835 9.389189 9.015248 8.649925 8.276688 7.933594 7.590501 7.247408 6.904315 6.590889 6.351678 6.103218 5.77035 5.417126 5.058858 4.70059 4.342322 3.970226 3.546213 3.13887 2.765377 2.406732 2.188633 1.985022 1.825279 1.602851 1.292649 1.228861 1.124819 1.020778 0.9167359 0.7707445 0.5988283 0.4130324 0.3630186 0.3700762 0.1845343 0 0 0 0 0 0 0 0 0 0 0 0 0 0 0 0 0 0 0.1529641 0.3801264 0.6072888 0.8344511 1.061614 1.661886 2.582454 3.503021 4.423589 5.344156 6.264724 7.185291 8.105859 9.026426 9.946994 10 10 10 10 10 10 10 10 10 10 10 10 10 10 10 10 10 10 10 10 10 10 10 10 10 10 10 10 10 10 10 10 10 10 10 10 10 9.758311 9.436345 9.775051 10 10 10 10 10 10 10 10 10 10 10 10 10 10 10 10 10 10 10 10 10 10 10 10 10 10 10 10 10 10 10 10 10 10
10 10 10 10 10 10 10 10 17.39288 29.98884 41.77171 41.476 29.97147 14.58257 9.735109 9.366423 9.009372 8.666279 8.323185 7.980092 7.636999 7.322896 7.083686 6.844475 6.527887 6.181968 5.8237 5.465432 5.107164 4.723783 4.298211 3.890135 3.516641 3.143148 2.860546 2.64187 2.46917 2.300079 1.937603 1.724948 1.641419 1.537378 1.433336 1.318695 1.146779 0.971972 0.7732722 0.7455623 0.7520043 0.5167131 0.2396436 0 0 0 0 0 0 0 0 0 0 0 0 0 0 0 0 0 0 0.07373565 0.300898 0.5280604 0.7552227 1.556497 2.477064 3.397632 4.318199 5.238767 6.159334 7.079902 8.000469 8.921037 9.841604 10 10 10 10 10 10 10 10 10 10 10 10 10 10 10 10 10 10 10 10 10 10 10 10 10 10 10 10 10 10 10 10 10 10 9.969519 9.647552 9.325586 9.00362 8.7598 9.374855 9.989909 10 10 10 10 10 10 10 10 10 10 10 10 10 10 10 10 10 10 10 10 10 10 10 10 10 10 10 10 10 10 10 10 10
12.83777 10 10 10 10 10.5161 10 10 17.85683 30.36292 48.81387 55.07732 42.06266 25.49367 11.69658 9.742056 9.398963 9.055869 8.712776 8.369683 8.054904 7.815693 7.576483 7.284108 6.946268 6.588542 6.230274 5.871978 5.479611 5.050196 4.6414 4.267906 3.894413 3.529331 3.309382 3.117731 2.972788 2.634831 2.272355 2.162096 2.053978 1.949936 1.845895 1.69473 1.522814 1.319839 1.141268 1.128106 1.125962 0.8488919 0.5718223 0.2947528 0.01768326 0 0 0 0 0 0 0 0 0 0 0 0 0 0 0 0 0 0 0.2216696 0.5305396 1.451107 2.371675 3.292242 4.21281 5.133377 6.053945 6.974512 7.89508 8.815647 9.736215 10 10 10 10 10 10 10 10 10 10 10 10 10 10 10 10 10 10 10 10 10 10 10 10 10 10 10 10 10 10 10 10 9.85876 9.536794 9.214828 8.892861 8.570895 8.248929 8.359605 8.974659 9.705143 10 10 10 10 10 10 10 10 10 10 10 10 10 10 10 10 10 10 10 10 10 10 10 10 10 10 10 10 10 10 10 10 10
16.16926 10 10 10 12.96432 19.08587 18.48485 14.0097 19.19966 28.86762 49.49763 60 51.55951 33.1846 18.47381 10 9.788553 9.44546 9.102367 8.786911 8.547701 8.30849 8.037953 7.703805 7.353383 6.995115 6.636407 6.238909 5.802182 5.392664 5.019171 4.645678 4.272184 3.983145 3.770745 3.609843 3.332059 2.969583 2.645432 2.570578 2.466536 2.362495 2.242681 2.070765 1.866405 1.680078 1.517541 1.510518 1.45814 1.181071 0.9040012 0.6269316 0.3498621 0.07279252 0 0 0 0 0 0 0 0 0 0 0 0 0 0 0 0 0 0 0.42515 1.345718 2.266285 3.186852 4.10742 5.027987 5.948555 6.869123 7.78969 8.710258 9.630825 10 10 10 10 10 10 10 10 10 10 10 10 10 10 10 10 10 10 10 10 10 10 10 10 10 10 10 10 10 10 9.748001 9.426035 9.104069 8.782103 8.460136 8.138171 7.816205 7.494239 7.959409 8.574463 9.752502 10 10 10 10 10 10 10 10 10 10 10 10 10 10 10 10 10 10 10 10 10 10 10 10 10 10 10 10 10 10 10 10 10
19.39588 11.81856 12.82904 15.56052 17.49788 24.1116 27.6745 19.32691 20 26.36445 46.53133 60 57.09049 38.74377 22.7594 12.51348 10 9.835052 9.518919 9.279708 9.040498 8.7918 8.461342 8.118225 7.759957 7.400836 6.99678 6.554167 6.143929 5.770436 5.396943 5.023449 4.65193 4.432071 4.251844 4.029287 3.666811 3.304335 3.078107 2.983136 2.879095 2.775054 2.618715 2.445351 2.226645 2.040318 1.897048 1.892795 1.790319 1.51325 1.23618 0.9591104 0.6820409 0.4049713 0.1279018 0 0 0 0 0 0 0 0 0 0 0 0 0 0 0 0 0 0 0.1297995 1.102262 2.074725 3.047188 4.01965 4.992113 6.082278 7.215989 8.470985 9.743661 10 10 10 10 10 10 10 10 10 10 10 10 10 10 10 10 10 10 10 10 10 10 10 10 10 10 10 9.959208 9.637242 9.315276 8.99331 8.671344 8.349379 8.027412 7.705446 7.38348 7.061514 6.944158 7.559213 8.349462 9.799862 10 10 10 10 10 10 10 10 10 10 10 10 10 10 10 10 10 10 10 10 10 10 10 10 10 10 10 10 10 10 10 10 10
20.72102 19.78403 19.45367 23.32431 26.60899 33.12606 40.02436 31.23943 28.36953 30 43.83779 60 60 44.99799 26.64399 16.5337 13.48788 14.18384 10 9.772505 9.533295 9.218844 8.879724 8.524798 8.16168 7.750395 7.306153 6.895195 6.521701 6.148208 5.774714 5.401221 5.105744 4.901955 4.726515 4.364039 4.001563 3.639087 3.506718 3.395695 3.291654 3.166666 2.99475 2.773211 2.586884 2.400558 2.276555 2.275408 2.122498 1.845428 1.568359 1.291289 1.01422 0.7371501 0.4600806 0.183011 0 0 0 0 0 0 0 0 0 0 0 0 0 0 0 0 0 0 0.2833236 1.572914 2.84559 4.118265 5.39094 6.663615 7.93629 9.208965 10 10 10 10 10 10 10 10 10 10 10 10 10 10 10 10 10 10 10 10 10 10 10 10 10 10 9.84845 9.526484 9.204517 8.882552 8.560586 8.23862 7.916654 7.594687 7.272721 6.950755 6.628789 6.306823 6.543962 7.159017 8.396821 9.847221 10 10 10 10 10 10 10 10 10 10 10 10 10 10 10 10 10 10 10 10 10 10 10 10 10 10 10 10 10 10 10 10 10
25.66409 24.80942 29.27824 37.07484 42.23356 47.32407 50 48.2408 43.36215 37.2938 42.95426 58.72495 60 51.97277 31.46982 23.86156 24.07583 24.90992 20.09854 15.32838 9.972691 9.63726 9.28964 8.922351 8.50401 8.058139 7.646459 7.272966 6.899473 6.525979 6.152486 5.778993 5.556921 5.394573 5.061267 4.698791 4.336315 3.998215 3.912295 3.808254 3.704212 3.542701 3.33965 3.133451 2.947124 2.760798 2.651972 2.658385 2.454677 2.177607 1.900538 1.623468 1.346398 1.069329 0.7922594 0.5151898 0.2381203 0 0 0 0 0 0 0 0 0 0 0 0 0 0 0 0 0.1117232 1.016729 1.921734 3.533887 4.856245 6.12892 7.401595 8.67427 9.946945 10 10 10 10 10 10 10 10 10 10 10 10 10 10 10 10 10 10 10 10 10 10 10 10 9.737691 9.415725 9.09376 8.771793 8.449827 8.127861 7.805895 7.483929 7.161963 6.839997 6.518031 6.196064 5.874098 5.556353 6.143766 6.993781 8.44418 9.894581 10 10 10 10 10 10 10 10 10 10 10 10 10 10 10 10 10 10 10 10 10 10 10 10 10 10 10 10 10 10 10 10 10
31.66522 35.73993 42.95907 50 49.32057 45.16769 46.08543 49.29494 50 50 47.61545 58.11301 60 57.22899 41.32066 35.99684 37.9875 40.81691 38.85775 35.77832 25.72395 12.0661 9.681502 9.257625 8.810124 8.397724 8.024231 7.650737 7.277244 6.903751 6.530257 6.228343 6.036409 5.758495 5.396019 5.033543 4.671067 4.431266 4.324854 4.220812 4.090652 3.918176 3.680017 3.49369 3.307364 3.121037 3.033858 3.031904 2.786855 2.509786 2.232716 1.955647 1.678577 1.401508 1.124438 0.8473687 0.5702991 0.2932295 0.01615997 0 0 0 0 0 0 0 0 0 0 0 0 0 0 0.8360161 1.741022 2.646027 3.551033 5.054658 6.809372 8.199381 9.41225 10 10 10 10 10 10 10 10 10 10 10 10 10 10 10 10 10 10 10 10 10 10 9.948898 9.626933 9.304967 8.983001 8.661035 8.339068 8.017102 7.695136 7.37317 7.051204 6.729238 6.407272 6.085306 5.76334 5.441374 5.119408 5.128516 5.743571 7.04114 8.49154 9.94194 10 10 10 10 10 10 10 10 10 10 10 10 10 10 10 10 10 10 10 10 10 10 10 10 10 10 10 10 10 10 10 10 10
33.70876 41.87664 49.73181 48.56875 41.45659 35.19724 38.35753 41.01156 44.92147 53.14 57.37835 60 60 60 53.97555 50 51.86361 54.47327 56.72743 55.8285 49.59789 26.74907 10.43214 9.56211 9.148989 8.775496 8.402002 8.028509 7.655015 7.281522 6.908029 6.686438 6.455723 6.093247 5.730771 5.368295 5.005819 4.841454 4.737412 4.633371 4.466686 4.226583 4.040257 3.85393 3.667603 3.481277 3.416401 3.396104 3.119034 2.841965 2.564895 2.287826 2.010756 1.733687 1.456617 1.179547 0.9024779 0.6254084 0.3483388 0.07126922 0 0 0 0 0 0 0 0 0 0 0 0 0.6553035 1.560309 2.465315 3.37032 4.275326 5.180331 6.548008 8.326157 10 10 10 10 10 10 10 10 10 10 10 10 10 10 10 10 10 10 10 10 10 10 10 9.872851 8.927428 8.550276 8.22831 7.906343 7.584378 7.262412 6.940445 6.618479 6.296514 5.974547 5.652581 5.330615 5.008649 4.686683 4.364717 4.72832 5.6381 7.0885 8.538899 9.9893 10 10 10 10 10 10 10 10 10 10 10 10 10 10 10 10 10 10 10 10 10 10 10 10 10 10 10 10 10 10 10 10 17.54076
34.35391 40 40.9126 37.48165 32.10115 30 30 32.58557 44.01307 55.42493 60 60 60 60 57.03386 50 50 57.01109 60 60 60 45.17157 19.78473 9.900254 9.52676 9.153267 8.779774 8.406281 8.032787 7.659294 7.348758 7.152951 6.790475 6.427999 6.065523 5.703047 5.350999 5.254013 5.149971 5.014637 4.820082 4.586823 4.400496 4.21417 4.027843 3.841517 3.798945 3.728283 3.451213 3.174144 2.897074 2.620004 2.342935 2.065865 1.788796 1.511726 1.234657 0.9575871 0.6805176 0.403448 0.1263785 0 0 0 0 0 0 0 0 0 0 0.4745908 1.379596 2.284602 3.189608 4.094613 4.999619 5.904624 6.80963 8.041359 9.819507 10 10 10 10 10 10 10 10 10 10 10 10 10 10 10 10 10 10 10 10 10 10 10 8.990427 7.900994 7.473619 7.151653 6.829687 6.507721 6.185755 5.863789 5.541822 5.219857 4.897891 4.575924 4.253958 3.931992 3.71307 4.296012 5.685459 7.135859 8.586259 10 10 10 10 10 10 10 10 10 10 10 10 10 10 10 10 10 10 10 10 10 10 10 10 10 10 10 10 10 10 19.9648 19.43976 24.8264 31.1749
40 40 35.2388 30 30 30 30 35.07092 46.84801 57.06264 60 60 57.32067 51.41827 48.85226 50 49.26338 49.6437 54.61153 60 60 50.47008 23.92647 10.42007 9.904532 9.531039 9.157545 8.784052 8.410559 8.037066 7.820974 7.487703 7.125226 6.762751 6.400275 6.037798 5.784425 5.666571 5.56253 5.390672 5.133389 4.947062 4.760736 4.574409 4.388083 4.204533 4.181347 4.060462 3.783392 3.506322 3.229253 2.952183 2.675114 2.398044 2.120975 1.843905 1.566836 1.289766 1.012696 0.7356268 0.4585573 0.1814877 0 0 0 0 0 0 0 0 0.2938782 1.198884 2.103889 3.008895 3.913901 4.818906 5.723912 6.628917 7.533923 8.438929 9.534709 10 10 10 10 10 10 10 10 10 10 10 10 10 10 10 10 10 10 10 10 10 10 10 9.225197 8.108003 6.990809 6.432641 6.074996 5.75303 5.431064 5.109098 4.787132 4.465166 4.1432 3.821234 3.499268 3.177302 3.312874 4.282419 5.732819 7.183218 8.633618 10 10 10 10 10 10 10 10 10 10 10 10 10 10 10 10 10 10 10 10 10 10 10 10 10 10 10 10 12.90663 19.51744 35.44717 35.83876 39.24252 39.75391
40 33.05032 29.56532 28.44803 28.71916 30 30.48346 39.61101 48.31158 57.6134 60 60 51.03839 44.13764 40 40.85508 40.03539 43.44536 48.86258 57.62375 60 52.3394 27.8217 15.6835 10 9.908811 9.535317 9.161823 8.78833 8.472161 8.184931 7.822454 7.459979 7.097503 6.735026 6.37255 6.183171 6.07913 5.938622 5.702908 5.493629 5.307302 5.120976 4.934649 4.748323 4.581927 4.563716 4.39264 4.115571 3.838501 3.561432 3.284362 3.007293 2.730223 2.453153 2.176084 1.899014 1.621945 1.344875 1.067806 0.7907361 0.5136665 0.236597 0 0 0 0 0 0 0.1131656 1.018171 1.923177 2.828182 3.733188 4.638194 5.543199 6.448205 7.35321 8.152726 8.898804 9.586139 10 10 10 10 10 10 10 10 10 10 10 10 10 10 10 10 10 10 10 10 10 10 10 9.459967 8.342772 7.225579 6.108385 5.379998 4.994381 4.676373 4.354407 4.032441 3.710475 3.388509 3.066543 2.744577 2.422611 2.879379 4.329778 5.780178 7.230578 8.680978 10 10 10 10 10 10 10 10 10 10 10 10 10 10 10 10 10 10 10 10 10 10 10 10 10 10 15.54282 25.2704 20 20 34.2411 40 40 40
40 30.7185 24.58169 22.59975 22.68408 24.87043 30.85805 41.87142 50.47186 58.59053 60 59.24406 47.4104 39.48255 33.85084 32.07741 34.20914 39.79983 46.609 55.31515 60 55.96193 34.34998 20.8206 12.90009 10 9.913089 9.539596 9.166101 8.882158 8.519683 8.157207 7.794731 7.432254 7.069778 6.707303 6.59573 6.486573 6.296662 6.040195 5.853868 5.667542 5.481215 5.294889 5.108563 4.957439 4.944453 4.724819 4.44775 4.17068 3.89361 3.616541 3.339471 3.062402 2.785332 2.508263 2.231193 1.954124 1.677054 1.399984 1.122915 0.8458453 0.5094969 0.07289306 0 0 0 0 0 0.8374586 1.742464 2.64747 3.478733 4.224811 4.970889 5.716967 6.463044 7.190048 7.88485 8.533847 9.134165 9.734483 10 10 10 10 10 10 10 10 10 10 10 10 10 10 10 10 10 10 10 10 10 10 9.694736 8.577542 7.460349 6.343154 5.22596 4.318981 3.93863 3.599716 3.27775 2.955784 2.633818 2.311852 1.989886 1.897428 2.926738 4.377138 5.827538 7.277937 8.728337 10 10 10 10 10 10 10 10 10 10 10 10 10 10 10 10 10 10 10 10 10 10 10 10 15.02811 20 29.65902 39.58979 38.20468 20 20 31.25117 40 36.25123
40 29.52682 21.12962 20 20 24.17942 33.83983 46.35856 54.86031 60 60 58.49545 45.76376 37.02271 30.56682 30 30 36.77639 44.43852 54.31485 60 58.82825 39.08729 26.1973 17.51833 11.79634 10 9.917367 9.579387 9.21691 8.854434 8.491959 8.129482 7.767006 7.404531 7.137584 7.008288 6.862608 6.586761 6.400435 6.214108 6.027782 5.841455 5.655129 5.468802 5.336946 5.311803 5.056998 4.779928 4.502859 4.225789 3.94872 3.67165 3.394581 3.117511 2.840441 2.563372 2.286302 2.009233 1.732163 1.455094 1.073174 0.7454768 0.2705242 0 0 0 0 0.2968959 1.042974 1.789051 2.535129 3.281207 4.027285 4.773362 5.476118 6.173294 6.850055 7.481554 8.081872 8.682191 9.282509 9.878628 10 10 10 10 10 10 10 10 10 10 10 10 10 10 10 10 10 10 10 10 10 9.929506 8.812312 7.695118 6.577924 5.46073 4.343536 3.250324 2.865115 2.514567 2.201093 1.879128 1.557161 1.235195 1.523698 2.974097 4.424497 5.928319 7.175762 9.478276 10 10 10 10 10 10 10 10 10 10 10 10 10 10 10 10 10 10 10 10 10 10 10 10 18.8838 22.58927 31.59525 41.12135 50 40.36015 21.74039 20 27.01915 30
34.38121 25.57408 20 20 20 27.33913 38.04622 49.75151 58.52244 60 60 56.62788 44.40551 34.84984 30 30 30 34.27945 42.99259 53.85632 60 59.18351 41.07438 29.84953 19.94486 14.73493 10 10 9.914139 9.551662 9.189186 8.826711 8.464234 8.101758 7.739283 7.524889 7.410559 7.187491 6.947001 6.760674 6.574348 6.388021 6.201695 6.015369 5.829042 5.711555 5.666246 5.389177 5.112107 4.835038 4.557968 4.280899 4.003829 3.726759 3.44969 3.17262 2.895551 2.618481 2.341412 2.064342 1.730679 1.418061 0.9539379 0.4757222 0 0 0 0 0.09936934 0.8454471 1.591525 2.337602 3.065012 3.762188 4.459364 5.141141 5.815259 6.429262 7.02958 7.629898 8.233431 8.818654 9.400878 9.983101 10 10 10 10 10 10 10 10 10 10 10 10 10 10 10 10 10 10 10 10 10 9.047082 7.929888 6.812694 5.6955 4.578306 3.461112 2.343918 1.805625 1.44462 1.121269 0.8024706 0.4974274 1.571057 2.688382 3.676105 5.614814 7.925641 10 10 10 10 10 10 10 10 9.997014 9.179233 10 10 10 10 10 10 19.72152 20 20 10 10 10 10 10 13.30981 22.69899 30.66856 38.74596 46.73177 50 42.14886 30.61401 21.39943 20 22.85049
26.13811 20 20 20 21.71795 28.39701 36.06276 46.58857 58.01617 60 59.41839 50.63944 39.72863 30 30 30 30 34.44217 42.31985 51.47406 60 60 44.27345 33.09127 25.17751 21.32826 16.92118 10 10 9.886415 9.523938 9.161463 8.798986 8.43651 8.074035 7.937447 7.772005 7.493567 7.307241 7.120914 6.934588 6.748261 6.561935 6.375608 6.189282 6.087241 5.998425 5.721355 5.444286 5.167216 4.890147 4.613077 4.336008 4.058938 3.781869 3.504799 3.22773 2.95066 2.616245 2.388185 2.090645 1.637352 1.168861 0.7125833 0.2872953 0 0 0 0 0.6479205 1.351082 2.048258 2.745434 3.432229 4.106346 4.772546 5.376969 5.977287 6.577638 7.176457 7.758681 8.350763 8.979189 9.551375 10 10 10 10 10 10 10 10 10 10 10 10 10 10 10 10 10 10 10 10 10 9.051708 7.106339 6.407203 5.666176 4.813076 3.695881 2.578687 1.461493 0.736968 0.3700034 0.03524131 0 0 1.116062 2.671724 5.613262 8.502586 10 10 10 10 10 10 10 8.185253 5.860787 8.105289 10 10 10 10 10 10 10 19.74028 15.89056 10 10 10 14.58383 17.5664 21.63125 31.78811 40 40 40 41.98626 37.90508 28.76117 21.80071 20 21.95687
20 20 20 20 23.16558 30.88622 38.9309 50.90378 59.48401 58.7916 50.40796 41.4187 32.08709 30 30 30 31.4246 36.00164 42.7677 53.79905 60 60 55.77118 43.03421 34.98887 31.45265 19.22538 14.42085 10 10 9.85869 9.496214 9.133739 8.771262 8.472586 8.334544 8.066166 7.853807 7.66748 7.481154 7.294828 7.108501 6.922175 6.735848 6.549522 6.469784 6.330604 6.053535 5.776465 5.499395 5.222326 4.945256 4.668187 4.391117 4.114048 3.836978 3.559908 3.218646 3.045691 2.763228 2.320765 1.862 1.441991 1.146325 0.5786179 0.01148056 0 0 0 0.3343279 1.031504 1.723316 2.397433 3.071551 3.723971 4.324677 4.924995 5.53426 6.116483 6.722362 7.377807 7.985161 8.554129 9.123096 9.693525 10 10 10 10 10 10 10 10 10 10 10 10 10 10 10 10 10 10 10 10 10 7.679569 5.341662 3.725969 2.928174 2.187147 1.446121 0.7050941 0 0 0 0 0 0 0.3113459 2.870611 6.132419 9.014055 10 10 10 9.312167 7.807543 6.373492 4.049026 4.205107 5.97788 8.740121 10 10 10 10 10 10 10.17464 10 10 10 12.76958 17.6053 25.10951 30.71412 39.14026 40 40 32.0665 30.57553 29.72088 25.76349 20 19.57298 19.68909
20 20 20 20.60691 25.38247 30 37.36632 49.73202 54.77194 49.67781 40.94173 33.06779 26.99006 28.80679 30 30 35.76001 39.96421 45.79143 51.11897 58.45508 64.25362 70 56.11079 47.63918 36.64255 20 23.60714 14.89054 10 10 9.830966 9.468491 9.106014 8.866606 8.66683 8.400373 8.214046 8.02772 7.841394 7.655067 7.468741 7.282414 7.096088 6.909761 6.852178 6.662783 6.385713 6.108644 5.831574 5.554504 5.277435 5.000365 4.723296 4.446226 4.169157 3.876152 3.703196 3.435812 3.004179 2.555139 2.171399 1.983712 1.437648 0.8699406 0.3188283 0 0 0 0.0144026 0.6885202 1.362638 2.036755 2.672066 3.272384 3.886724 4.474286 5.093961 5.761814 6.394409 6.987914 7.556881 8.125896 8.701451 9.259525 9.766991 10 10 10 10 10 10 10 10 10 10 10 10 10 10 10 10 10 10 10 9.390855 7.461808 5.44813 3.358518 1.307111 0 0 0 0 0 0 0 0 0 0 0 0.05592012 2.087569 3.514144 4.106684 3.803574 2.47773 0.9633591 0 0.2354161 1.431638 3.995685 6.717254 9.666551 10 10 10 10 10 10 10 10 10 13.18725 19.45887 30.56491 37.22213 40 40 32.96106 25.00455 21.70512 22.18699 20.96857 17.83702 15.98306 16.48419
20 20 20 24.46793 31.64054 36.93408 40 45.09037 46.73749 40.5186 32.33913 25.9967 21.95674 22.69675 26.5052 32.42564 40.19043 47.42414 50 49.47641 49.56667 57.49589 66.69677 64.05869 54.49662 24.90172 29.97389 32.3756 22.68381 14.99854 10 10 9.803242 9.440766 9.247347 8.946939 8.760613 8.574286 8.38796 8.201633 8.015307 7.828981 7.642654 7.456328 7.270001 7.229859 6.994962 6.717892 6.440823 6.163753 5.886683 5.609614 5.332544 5.055475 4.722992 4.533657 4.360702 4.108396 3.687593 3.256195 2.900807 2.71312 2.296678 1.728971 1.176146 0.6408846 0.1157655 0 0 0 0.3278424 1.00196 1.619773 2.23093 2.832089 3.46556 4.133413 4.780952 5.413877 5.990666 6.559633 7.149597 7.709377 8.270524 8.776322 9.280162 9.790295 10 10 10 10 10 10 10 10 10 10 10 10 10 10 10 10 10 9.982573 8.63948 6.961722 5.21613 3.175342 1.134555 0 0 0 0 0 0 0 0 0 0 0 0 0 0 0 0 0 0 0 0 0 1.845726 4.93972 7.894058 10 10 10 10 10 10 10 10 10 13.90221 18.73628 28.4146 37.55894 40 40 32.38503 22.52687 20 20 18.35589 14.82283 12.35171 13.76673
18.04503 18.73546 19.42589 23.65036 31.05106 36.89627 40 40.88882 39.24766 33.30351 27.23296 21.89296 20 20.69714 27.77825 34.82653 41.89717 47.10949 45.00707 42.13218 42.859 50.36923 60 56.9113 42.66967 20 40 40 32.27742 22.56085 18.18886 14.90825 10 9.80535 9.552408 9.307179 9.120853 8.934526 8.7482 8.561873 8.375547 8.18922 8.002894 7.816567 7.645218 7.591702 7.32714 7.050071 6.773001 6.495932 6.218862 5.941792 5.664723 5.364118 5.191163 5.018208 4.78098 4.376967 3.97 3.630215 3.442528 3.155708 2.588001 2.034822 1.497707 0.9726572 0.4634821 0 0 0 0 0.5751372 1.189892 1.837159 2.505011 3.172864 3.808838 4.424451 4.993419 5.579044 6.163238 6.725178 7.281128 7.785655 8.279325 8.774472 9.263565 9.829382 10 10 10 10 10 10 10 10 10 10 10 10 10 10 10 10 9.066939 7.762821 6.502117 4.891501 3.085898 1.316601 0 0 0 0 0 0 0 0 0 0 0 0 0 0 0 0 0 0 0 0 0 0.621028 3.455077 6.266078 8.73099 10 10 10 10 10 10 10 12.4553 15.50856 19.4573 24.05491 33.13509 40 40 30.26824 23.14613 20 20 17.30069 13.36294 10 10
15.8054 16.49582 18.25674 20.69804 25.67733 30.93354 34.05458 34.63162 30.37635 27.54293 23.93158 20 20 20 25.80027 32.63031 38.79951 40.17791 36.26341 34.96886 38.06243 46.6982 50 50 35.32614 29.9191 40 40 40 35.76481 31.3132 28.68347 23.26305 15.33439 9.853745 9.667419 9.481092 9.294766 9.108439 8.922113 8.735786 8.54946 8.363133 8.176807 8.022163 7.936388 7.659319 7.382249 7.10518 6.828111 6.551041 6.273972 6.021624 5.848669 5.675713 5.453564 5.070878 4.683804 4.359623 4.171937 3.9878 3.447031 2.893497 2.354529 1.829549 1.327398 0.855161 0.3562498 0 0 0 0.2087573 0.8766102 1.544463 2.195069 2.829097 3.427204 4.004706 4.601292 5.171164 5.744657 6.291732 6.794986 7.278489 7.75865 8.261845 8.759903 9.345531 9.940192 10 10 10 10 10 10 10 10 10 10 10 10 10 10 9.405363 8.258203 6.945705 5.740098 4.283294 2.949127 1.143523 0 0 0 0 0 0 0 0 0 0 0 0 0 0 0 0 0 0 0 0 0 0 2.63764 4.732888 7.056655 8.851002 10 10 10 10 10 15.00599 19.95162 20.22135 20 21.27029 29.75959 35.11297 35.16555 30 30 29.83222 22.67563 17.53323 12.7936 10 10
13.65277 15.62916 17.28223 18.25139 19.06437 19.86173 24.79171 27.77375 26.48937 23.32431 20 20 20 20 22.30404 29.89812 33.27435 32.23235 30 30 37.38304 47.0307 50 47.75856 31.32575 31.56523 39.55626 40 40 40 40 40 38.24371 25.40466 12.12079 10 9.841332 9.655006 9.468679 9.282353 9.096026 8.9097 8.723373 8.537047 8.397337 8.268567 7.991498 7.714428 7.437359 7.160289 6.852085 6.67913 6.506174 6.333219 6.122861 5.764789 5.397608 5.089032 4.901344 4.713657 4.306061 3.752173 3.211351 2.686441 2.192615 1.711723 1.212811 0.7139004 0.2149893 0 0 0 0.5812996 1.222954 1.848564 2.430369 3.032193 3.62183 4.188059 4.7608 5.302337 5.804317 6.277653 6.755552 7.256238 7.690424 8.276053 8.8668 9.439816 10 10 10 10 10 10 10 10 10 10 10 10 10 9.673594 8.569894 7.38351 6.305025 5.117098 3.733877 2.413256 0.899604 0 0 0 0 0 0 0 0 0 0 0 0 0 0 0 0 0 0 0 0 0 1.250922 2.998653 4.168534 5.338416 6.508296 7.678178 8.848059 10 10 10.08584 19.23106 25.33641 28.73273 25.81607 20 24.49323 25.15974 25.21933 29.64504 30 30 29.90834 18.99498 12.49286 10 10
12.55733 14.1594 15.27356 16.1177 17.1657 18.12785 18.83218 19.5839 20 20 20 20 20 20 20.63714 28.00272 29.19237 27.20941 29.55248 30 37.6764 45.14078 45.54845 38.31281 30 33.92281 40 40 39.16254 40 40 40 39.82615 28.6079 15.79729 10 10 10 9.828919 9.642592 9.456266 9.269939 9.083613 8.897287 8.771137 8.600746 8.323677 8.046607 7.769537 7.509591 7.336635 7.16368 6.990724 6.790125 6.458699 6.101929 5.818439 5.630753 5.443065 5.165092 4.610849 4.068173 3.544026 3.064243 2.568284 2.069373 1.570462 1.071551 0.5553705 0.02476328 0 0 0.2443164 0.8637412 1.457855 2.052988 2.632951 3.207913 3.776944 4.312941 4.813649 5.281845 5.760479 6.242986 6.629965 7.206574 7.793409 8.345043 8.911039 9.568607 10 10 10 10 10 10 10 10 10 10 10 9.76763 8.567059 7.392321 6.54804 5.361655 4.351848 3.163921 1.975994 0.607663 0 0 0 0 0 0 0 0 0 0 0 0 0 0 0 0 0 0 0 0 0.4139577 1.267943 2.121929 2.975915 3.829901 4.683886 5.537872 6.505354 7.675235 8.845117 10 17.85006 24.86679 29.90166 27.85902 22.80692 18.26451 17.0259 17.43584 20.10406 25.50158 30 30 19.48755 10.26617 10 10
11.03657 12.01868 13.19752 14.46967 15.67848 16.38281 17.36115 18.00851 18.8109 19.37799 19.82696 20 20 20 20 25.22637 24.90075 23.19537 25.80328 29.45319 37.23352 40 39.88052 30.50463 30 35.67635 40 40 34.62878 35.8929 39.15885 40 36.06374 27.51534 17.38361 10 10 10 10 10 9.816506 9.630179 9.443853 9.257526 9.140624 8.932925 8.655855 8.378786 8.167096 7.994141 7.821185 7.64823 7.457389 7.15261 6.805303 6.547848 6.36016 6.172473 5.992222 5.456414 4.924995 4.402745 3.923757 3.424846 2.925935 2.427024 1.914657 1.383945 0.8505116 0.3151945 0 0 0 0.484146 1.073526 1.65094 2.227768 2.791425 3.323545 3.822981 4.289353 4.763534 5.227163 5.627454 6.137096 6.722725 7.258685 7.730933 8.386529 8.998868 9.709503 10 10 10 10 10 10 10 10 10 9.642347 8.458257 7.274984 6.328264 5.289846 4.509825 3.397344 2.398671 1.210744 0.02281648 0 0 0 0 0 0 0 0 0 0 0 0 0 0 0 0.04471732 0.1022165 0.1597157 0.1461809 0.2661204 0.9549186 1.643717 2.450413 3.255826 4.053589 4.859915 5.666241 6.472568 7.277664 8.082323 8.886982 9.691641 18.40447 23.29225 23.26388 18.13707 12.37411 10.05038 10.82695 15.19159 21.67937 28.15191 28.10667 20.80024 12.17486 10 10
10 10.1762 11.7014 13.2291 14.07546 15.1384 15.82655 16.82201 17.81747 18.08373 18.53271 18.98168 19.43065 19.87962 20 21.84521 20.74976 20 22.65251 27.4262 34.37634 38.38243 33.92605 30 30 38.87592 40 36.0377 30 30.39259 34.41725 39.42181 34.92607 27.39189 21.90782 17.5491 10 10 10 10 10 9.990419 9.804093 9.617766 9.515265 9.265104 8.997557 8.824602 8.651647 8.478691 8.305736 8.124654 7.846521 7.508677 7.277256 7.089569 6.901881 6.714194 6.315444 5.781817 5.261465 4.780319 4.281407 3.782496 3.27438 2.743126 2.208823 1.673506 1.139642 0.6140088 0.1000485 0 0 0.09406308 0.6707943 1.244872 1.803762 2.33415 2.830748 3.296861 3.765803 4.211341 4.627031 5.067617 5.653246 6.172327 6.550827 7.20445 7.731547 8.462648 9.089494 9.762565 10 10 10 10 10 10 10 9.55417 8.237601 7.064913 5.956082 4.835272 4.066621 3.21681 2.430767 1.433045 0.4454937 0 0 0 0 0 0 0 0 0 0 0.02759347 0.08509268 0.1425919 0.2000911 0.2575903 0.3150895 0.3725887 0.4300879 0.4875871 0.4523234 0.6540453 1.342844 2.031642 2.72044 3.409238 4.098036 4.786834 5.475633 6.164431 6.853229 7.542027 8.230825 8.919623 9.608422 12.46 15.16286 13.03296 10 10 10 12.89808 20 24.35403 24.29818 21.35835 13.416 10 10
10 10 10.45468 11.83917 12.91565 13.83765 14.83311 15.82857 16.56748 16.78948 17.23845 17.68743 18.1364 18.716 19.43431 20 20 20 20 21.47254 30 30.19319 30 30 30 36.93639 37.02587 30 30 30 30.72109 37.66232 37.98957 34.16554 30.45346 26.6661 20.64099 10 10 10 10 10 10 9.978006 9.872499 9.655063 9.482107 9.309152 9.136196 8.963241 8.791918 8.540431 8.222615 8.006664 7.818976 7.631289 7.443602 7.174474 6.638639 6.123626 5.63688 5.137969 4.634103 4.102307 3.567135 3.031817 2.504786 1.987773 1.481838 0.9783542 0.4748703 0 0 0 0.2610155 0.8160983 1.344754 1.837555 2.304369 2.768073 3.195518 3.625167 3.998139 4.583767 5.085969 5.44304 6.022371 6.544365 7.197072 7.800032 8.469484 9.18245 9.90694 10 10 10 10 10 10 8.344105 6.75571 5.579689 4.553331 3.570085 2.621191 1.800509 1.138399 0.3517089 0 0 0 0 0 0.01046962 0.06796882 0.125468 0.1829672 0.2404664 0.2979656 0.3554648 0.412964 0.4704632 0.5279624 0.5854617 0.6429608 0.7004601 0.7579592 0.8154585 0.7583733 1.04197 1.730768 2.419567 3.108365 3.797163 4.485961 5.174759 5.863557 6.552356 7.241154 7.929952 8.618751 9.307549 9.996346 10 10 10 10 10 10 10.42804 16.67083 20 20 14.28285 10 10 10
10 10 10 10.8533 11.84876 12.84422 13.83968 14.83514 15.22633 15.49523 15.9442 16.39318 16.95393 17.62504 18.86454 20 20 20 20 20 25.44959 27.91829 26.94044 27.81281 28.68518 30.73352 29.66505 28.20652 28.84598 29.48544 30 37.9199 40 38.85413 34.67744 29.82137 21.69465 12.30032 10 10 10 10 13.17703 22.03053 21.75429 10.9314 9.966658 9.793702 9.620747 9.459183 9.234343 8.946425 8.736072 8.548385 8.360698 8.17301 7.996645 7.495461 6.991496 6.493442 5.993827 5.460763 4.925446 4.395563 3.875497 3.371251 2.867767 2.367104 1.866961 1.366818 0.866675 0.3665322 0 0 0 0.3553584 0.8443626 1.311878 1.770342 2.191614 2.621682 2.986642 3.514289 3.999611 4.356682 4.841944 5.389654 5.92975 6.51057 7.180022 7.878118 8.58812 9.293008 9.993215 10 10 10 10 9.556466 7.355527 5.321533 3.978996 2.923848 2.002513 1.162686 0.4071092 0 0 0 0.05633518 0.1658434 0.2233426 0.2808418 0.338341 0.3958402 0.4533394 0.5108386 0.5683378 0.625837 0.6833362 0.7408354 0.7983346 0.8558338 0.913333 0.9708322 1.028331 1.085831 1.14333 1.063668 1.429895 2.118693 2.807491 3.496289 4.185088 4.873886 5.562684 6.251482 6.94028 7.629079 8.317877 9.006675 9.695474 10 10 10 10 10 10 10 10 10 15.20688 13.14299 10 10 10 10
10 10 10 10 10.85532 11.85078 12.84624 13.8417 13.88518 14.20098 14.64995 15.19186 15.84943 16.49071 18.29478 20 20 20 20 20 20.74695 22.72042 23.65279 24.05713 25.98787 27.14005 26.40969 25.2007 25.83861 26.47808 28.45957 36.51448 39.57775 35.18298 31.5049 30 21.63017 12.40738 10 10 10 15.59799 25.03528 30 30 29.23764 23.56059 20.44938 17.06103 9.928253 9.670236 9.46548 9.277793 9.090105 8.902418 8.714731 8.352283 7.848915 7.350003 6.819075 6.28634 5.764147 5.260664 4.759549 4.259406 3.759263 3.25912 2.750215 2.21694 1.683666 1.150391 0.6171169 0.2975809 0 0 0 0.3193857 0.7726111 1.196541 1.616076 1.991343 2.444811 2.913253 3.270324 3.661837 4.234942 4.66243 5.265118 5.89056 6.577826 7.269301 7.955121 8.633745 9.301477 9.334245 8.989182 8.763502 8.307232 7.531693 6.048763 4.399431 2.47055 1.363668 0.4199525 0 0 0 0 0.1181132 0.3046909 0.4937147 0.5512139 0.6087132 0.6662124 0.7237116 0.7812108 0.83871 0.8962092 0.9537084 1.011208 1.068707 1.126206 1.183705 1.241204 1.298704 1.356203 1.413702 1.471201 1.368963 1.81782 2.506618 3.195416 3.884214 4.573013 5.261811 5.950609 6.639407 7.328206 8.017004 8.705802 9.3946 10 10 10 10 10 10 10 10 10 10 10 10 10 10 10 10
10 10 10 10 10 10.85735 11.85281 12.56011 12.54403 12.90672 13.42979 14.07383 14.71002 15.68332 17.72501 19.7667 20 20 20 23.37454 23.91439 23.26992 21.07532 20.48288 22.22182 22.65182 22.95135 22.47821 22.83125 23.94146 28.07896 32.06993 32.75846 28.73088 26.02909 24.12393 20.98848 13.77059 11.26164 12.63066 13.83805 16.28934 25.43692 30 30 30 25.80751 20 20 20 14.61565 10 9.819513 9.631826 9.444139 9.210217 8.705476 8.177386 7.65356 7.151994 6.651852 6.143609 5.610334 5.07706 4.543786 4.010511 3.477237 2.943962 2.410688 1.877414 1.344139 1.141353 0.745487 0.1957623 0 0 0 0.2014688 0.6104689 0.9910294 1.375332 1.826894 2.183965 2.541036 3.080231 3.463655 4.046343 4.601098 5.277534 5.950482 6.617234 7.274275 7.933311 8.413951 8.305797 7.333954 7.042995 6.25929 5.661975 4.251242 2.526056 1.017713 0 0 0 0 0.07859774 0.2353499 0.3942468 0.5671829 0.7634834 0.8790853 0.9365845 0.9940837 1.051583 1.109082 1.166581 1.224081 1.28158 1.339079 1.396578 1.454077 1.511577 1.569076 1.626575 1.684074 1.741573 1.797919 1.690722 2.205745 2.894543 3.583341 4.27214 4.960938 5.649736 6.338534 7.027332 7.71613 8.404928 9.093727 9.782525 10 10 10 10 10 10 10 10 10 10 10 10 10 10 10 10
10 10 10 10 10 10 10.85937 11.21896 11.20288 11.66204 12.29823 12.93441 13.5706 15.11355 17.15524 19.19694 20 20 24.15441 31.21063 33.72151 31.02606 24.91125 20 20 20 20 20 20.0943 22.11446 25.73033 28.65321 26.84151 23.6245 20.41127 20 20 19.68717 19.96679 19.84855 19.79216 19.76354 26.79971 30 30 27.27715 22.03729 20 20 20 20 16.7682 10.76597 10 10 9.537003 9.003729 8.470454 7.93718 7.403905 6.870631 6.337357 5.804082 5.270808 4.737534 4.204259 3.670985 3.13771 2.604436 2.071162 1.840637 1.749462 1.193393 0.6628398 0.1235473 0 0 0 0 0.3458305 0.7405362 1.097607 1.454678 1.92552 2.308943 2.830007 3.311635 3.977243 4.631662 5.279347 5.914805 6.565144 7.214314 7.268409 7.160254 6.354455 5.322489 5.096809 3.974074 2.422031 0.7366049 0 0 0 0 0.1146589 0.3313973 0.5295083 0.6751418 0.840055 1.016225 1.206957 1.264456 1.321955 1.379454 1.436954 1.494453 1.551952 1.609451 1.66695 1.72445 1.781949 1.839448 1.896947 1.954446 2.011945 2.069445 2.104062 2.010772 2.59367 3.282468 3.971266 4.660064 5.348862 6.037661 6.726459 7.415257 8.104055 8.792853 9.481651 10 10 10 10 10 10 10 10 10 10 10 10 10 10 10 10 10
10.04952 11.56098 10.34 10 10 10 10 10 10 10.52262 11.15881 11.79499 12.50209 14.54378 16.58547 18.62717 20 23.24157 31.50401 40 40 36.59681 26.95297 21.22814 20 20 20 20 20 20 22.16246 22.75614 22.40791 20 20 20 20 20 20 20 19.82497 18.16077 20.66374 24.50384 28.40269 25.8231 20 16.64874 16.22806 19.46772 20 20 18.25408 10 10 9.730751 9.197476 8.664202 8.130928 7.597653 7.064379 6.531105 5.99783 5.464556 4.931282 4.398007 3.864733 3.331458 2.798184 2.539922 2.38554 2.197368 1.641299 1.144213 0.6264591 0.1314375 0 0 0 0 0.01124886 0.3683198 0.7708086 1.154232 1.593313 2.051216 2.676951 3.303955 3.933932 4.555335 5.196978 5.844497 6.23102 6.122866 6.014711 5.575519 4.383113 3.376303 2.31438 0.9011502 0 0 0 0 0.15072 0.3674585 0.5841969 0.8009353 0.9621099 1.119474 1.284282 1.470632 1.592327 1.649826 1.707326 1.764825 1.822324 1.879823 1.937322 1.994822 2.052321 2.10982 2.167319 2.224818 2.282318 2.339817 2.397316 2.410204 2.323082 2.981595 3.670393 4.359191 5.047989 5.736787 6.425585 7.114384 7.803182 8.49198 9.180779 9.869576 10 10 10 10 10 10 10 10 10 10 10 10 10 10 10 10 10
13.65614 17.50131 17.57503 14.56395 10 10 10 10 10 10 10.01939 10.65557 11.93232 13.97401 16.01571 18.18203 21.3283 27.45542 35.37997 40 40 40 31.75281 23.96104 20 20 20 20 20 20 20 20 20 20 20 20 20 19.86205 17.16759 16.8344 15.26135 12.29248 14.37309 16.97641 18.30185 19.88256 16.78597 12.36144 11.4685 14.22193 19.55061 17.32286 10.87177 10 10 9.924499 9.391225 8.85795 8.324676 7.791401 7.258127 6.724853 6.191578 5.658304 5.12503 4.591755 4.058481 3.525206 3.239206 3.084824 2.953126 2.645274 2.153278 1.629274 1.154956 0.6763735 0.1994787 0 0 0 0 0 0 0.3829441 0.8245536 1.376659 1.967294 2.580763 3.195865 3.828811 4.476104 5.140487 5.085477 4.977323 4.869169 4.763764 3.484268 2.233686 1.197742 0 0 0 0 0.1867812 0.4035196 0.620258 0.8369965 1.053735 1.256336 1.401902 1.561997 1.73587 1.920199 1.977698 2.035197 2.092696 2.150195 2.207695 2.265194 2.322693 2.380192 2.437691 2.495191 2.55269 2.610189 2.667688 2.725188 2.716347 2.680721 3.369519 4.058318 4.747116 5.435914 6.124712 6.81351 7.502308 8.191107 8.879905 9.568703 10 10 10 10 10 10 10 10 10 10 10 10 10 10 10 10 10 10
16.50354 20 20 14.51867 10 10 10 10 10 10 10 10.04348 14.19212 17.69314 20 20 21.6558 26.26096 31.36898 38.11021 40 40 36.5439 27.55068 20 20 20 20 20 20 20 20 20 20 20 20 19.93841 17.24395 14.5495 11.30871 11.07118 10 10 10 10 11.1466 12.33629 10 10 10 12.22338 10 10 10 10 10 9.584972 9.051698 8.518424 7.985149 7.451875 6.918601 6.385326 5.852052 5.318778 4.785503 4.252229 3.938491 3.784109 3.629727 3.603882 3.09318 2.620355 2.147938 1.679619 1.222165 0.7986063 0.424889 0.04366217 0 0 0 0 0 0.07636759 0.6306325 1.227594 1.836395 2.465193 3.112027 3.77067 4.048089 3.939935 3.83178 3.723626 3.615472 2.705332 1.432272 0.08425872 0 0 0.006103894 0.2228423 0.4395808 0.6563192 0.8730576 1.089796 1.306535 1.523273 1.688866 1.844702 2.004904 2.183289 2.305569 2.363068 2.420568 2.478067 2.535566 2.593065 2.650564 2.708064 2.765563 2.823062 2.880561 2.938061 2.99556 3.053059 3.022363 3.068646 3.757444 4.446242 5.135041 5.823839 6.512637 7.201435 7.890234 8.579032 9.26783 9.956628 10 10 10 10 10 10 10 10 10 10 10 10 10 10 10 10 10 10
16.34773 20 18.66082 11.12674 10 10 10 10 10 10 10 15.00183 20 20 20 20 20 22.03463 27.08582 32.62482 39.86809 40 36.06609 29.16348 20 20 20 20 20 20 20 20 20 20 20 20 18.7707 15.3097 12.17876 10 10 10 10 10 10 10 10 10 10 10 10 10 10 10 10 10 9.778721 9.245446 8.712172 8.178897 7.645623 7.112349 6.579074 6.0458 5.512526 4.979251 4.637775 4.483393 4.329011 4.174629 4.097154 3.643716 3.135001 2.703138 2.257781 1.807836 1.427429 1.09518 0.7304219 0.4258032 0.1492333 0 0 0 0 0 0.4774007 1.10297 1.744946 2.400853 3.0107 2.902546 2.794392 2.686238 2.578083 2.469929 1.926396 0.6140802 0 0 0.04216504 0.2589035 0.4756419 0.6923803 0.9091188 1.125857 1.342596 1.559334 1.776073 1.983163 2.128662 2.283938 2.456128 2.63344 2.69094 2.748439 2.805938 2.863437 2.920937 2.978436 3.035935 3.093434 3.150934 3.208433 3.265932 3.323431 3.38093 3.327658 3.456571 4.145369 4.834167 5.522965 6.211764 6.900562 7.58936 8.278158 8.966956 9.655755 10 10 10 10 10 10 10 10 10 10 10 10 10 10 10 10 10 10 10
13.30918 16.4158 12.30886 10 10 10 10 10 10 10 13.33296 17.29368 20 20 20 20 20 20 23.9271 28.86567 33.84068 33.83779 31.55589 26.1097 20 20 19.87595 19.4326 18.98925 18.87426 19.70528 20 20 21.12717 25.00975 24.22217 20 18.65665 15.78162 12.65229 10 10 10 10 10 10 10 10 10 10 10 10 10 10 10 10 9.972468 9.439194 8.90592 8.372645 7.839371 7.306097 6.772822 6.239548 5.706274 5.337059 5.182678 5.028296 4.873914 4.793784 4.545061 4.110794 3.669417 3.249728 2.846933 2.452169 2.111578 1.765472 1.428555 1.141656 0.8607647 0.6250601 0.2732926 0 0 0 0 0.3778641 1.031036 1.696843 1.865158 1.757003 1.648849 1.540695 1.432541 1.324386 1.14746 0 0 0.02290252 0.2949646 0.5117031 0.7284415 0.9451799 1.161918 1.378657 1.595395 1.812134 2.028872 2.24561 2.415621 2.56993 2.727869 2.899643 3.018811 3.07631 3.13381 3.191309 3.248808 3.306307 3.363806 3.421306 3.478805 3.536304 3.593803 3.651302 3.708802 3.643437 3.844496 4.533294 5.222092 5.91089 6.599689 7.288486 7.977285 8.666083 9.354881 10 10 10 10 10 10 10 10 10 10 10 10 10 10 10 10 10 10 10 10
10.27063 11.49955 10 10 10 10 10 10 10 11.7023 14.69722 18.61423 20 20 20 20 20 20 21.23924 25.67556 28.03967 27.56648 25.73185 20.55835 18.56989 18.12654 17.68319 17.23984 16.99333 17.85913 18.90302 19.9469 20 20.15119 27.79039 30 23.55667 20.03559 24.9912 19.87049 14.1668 10.92536 10 10 10 10 10 10 10 10 10 10 10 10 10 10 10 9.632942 9.099668 8.566393 8.033119 7.499845 6.96657 6.433296 6.036344 5.881962 5.72758 5.573198 5.418816 5.44454 4.992967 4.640728 4.251319 3.839188 3.448575 3.085803 2.816112 2.451115 2.133459 1.850361 1.572296 1.412244 1.049092 0.6066399 0.1148268 0 0 0 0.3270256 0.8277693 0.719615 0.6114607 0.5033064 0.3951521 0.2869977 0.1788434 0.07068913 0 0 0.1900477 0.4928146 0.7645026 0.981241 1.197979 1.414718 1.631456 1.848195 2.064933 2.281672 2.49841 2.70999 2.855422 3.00588 3.173367 3.346683 3.404182 3.461681 3.51918 3.576679 3.634178 3.691678 3.749177 3.806676 3.864175 3.921674 3.979174 4.036673 3.968189 4.23242 4.921219 5.610017 6.298815 6.987613 7.676412 8.36521 9.054008 9.742806 10 10 10 10 10 10 10 10 10 10 10 10 10 10 10 10 10 10 10 10
10 10 10 10 10 10 10 10 10 13.14984 16.54589 19.93477 20 20 20 20 20 20 19.81956 21.13159 22.62233 22.18367 20.91638 18.38731 16.37713 15.93378 15.49043 15.1124 16.01297 17.05686 18.10075 19.14464 20 20 20 20 22.38275 23.27725 25.4989 23.44581 20 19.39991 12.63395 10 10 10 10 10 10 10 10 10 10 10 10 10 10 9.82669 9.293415 8.760141 8.226867 7.693593 7.160318 6.735629 6.581246 6.426865 6.272482 6.118101 5.983685 5.996941 5.601232 5.190896 4.840099 4.45529 4.107198 3.790017 3.487281 3.143141 2.849312 2.561893 2.359391 2.200822 1.822509 1.374667 0.7482802 0 0 0 0 0 0 0 0 0 0 0 0 0 0.09545614 0.3591895 0.6599598 0.9627268 1.234041 1.450779 1.667518 1.884256 2.100994 2.317733 2.534471 2.75121 2.967948 3.142376 3.295157 3.450834 3.611177 3.732053 3.789552 3.847051 3.904551 3.96205 4.019549 4.077048 4.134548 4.192047 4.249546 4.307045 4.364633 4.29027 4.620346 5.309144 5.997942 6.68674 7.375538 8.064337 8.753135 9.441933 10 10 10 10 10 10 10 10 10 10 10 10 10 10 10 10 10 10 10 10 10
10 10 10 10 10 10 10 10 11.71064 14.32607 16.90212 20 20 20 19.33555 18.64049 17.94543 17.25037 17.60441 20 20 20 18.09218 16.47511 14.32228 13.74101 13.29766 14.16682 15.21071 16.2546 17.33631 18.47219 19.83208 20 20 20 20 20 20 20 19.25376 14.16329 10 10 10 10 10 10 10 10 10 10 10 10 10 10 10 10 9.487164 8.953889 8.420615 7.887341 7.434913 7.280531 7.126149 6.971767 6.817385 6.663003 6.634441 6.444847 6.146455 5.799501 5.420596 5.108291 4.763922 4.494551 4.157572 3.841116 3.55149 3.306537 3.146575 2.991179 2.595927 2.142695 1.381734 0.4600429 0 0 0 0 0 0 0 0 0 0 0 0.008828836 0.3913313 0.6076428 0.8320646 1.129872 1.432639 1.703579 1.920317 2.137056 2.353794 2.570532 2.787271 3.004009 3.220748 3.436818 3.582182 3.729504 3.890466 4.058414 4.117424 4.174923 4.232422 4.289921 4.34742 4.40492 4.462419 4.519918 4.577417 4.634916 4.674228 4.609726 5.00827 5.697069 6.385867 7.074665 7.763463 8.452261 9.14106 9.829858 10 10 10 10 10 10 10 10 10 10 10 10 10 10 10 10 10 10 10 10 10
10 10 10 10 10 10 10 10 11.85391 14.01463 16.17534 17.88477 20 19.78845 17.21074 15.37623 14.68117 13.98611 15.59678 19.65366 20 18.04001 16.10361 14.2567 12.36273 11.54825 12.32067 13.38953 14.52642 15.66435 16.80228 18.67646 20 20 20 20 20 20 20 20 17.38686 10 10 10 10 10 10 10 10 10 10 10 10 10 10 10 10 10 9.680911 9.147637 8.614363 8.134197 7.979815 7.825434 7.671052 7.51667 7.362288 7.207906 7.285198 7.060257 6.712375 6.43047 6.063648 5.765616 5.468455 5.199084 4.858556 4.556968 4.263021 4.093721 3.933758 3.772885 3.369344 2.910722 2.015187 1.093496 0.1718056 0 0 0 0 0 0 0 0 0 0 0.3204652 0.696799 1.007584 1.110517 1.30494 1.599784 1.902551 2.173117 2.389855 2.606594 2.823332 3.04007 3.256809 3.473547 3.690286 3.869131 4.020385 4.173799 4.322711 4.445295 4.502794 4.560293 4.617793 4.675292 4.732791 4.79029 4.847789 4.905289 4.962788 4.98037 4.927413 5.396195 6.084993 6.773791 7.46259 8.151388 8.840186 9.528984 10 10 10 10 10 10 10 10 10 10 10 10 10 10 10 10 10 10 10 10 10 10
10 10 10 10 10 10 10 10 10 11.6499 13.81062 14.71244 16.39222 16.78643 15.4729 13.33315 11.41691 11.04697 14.35525 17.8847 19.36237 16.3582 14.15904 12.17864 10.27046 10.58066 11.71859 12.85652 13.99445 15.18709 17.52083 19.85457 20 20 21.05066 24.02624 25.74327 26.01493 23.90478 21.75044 17.88091 13.3723 10 10 10 10 10 10 10 10 10 10 10 10 10 10 10 10 9.87466 9.341385 8.841457 8.6791 8.524718 8.370336 8.215954 8.061572 7.90719 7.824343 7.896728 7.634592 7.347683 7.045498 6.767345 6.44236 6.172989 5.879382 5.561065 5.252618 5.040868 4.880905 4.720942 4.554591 4.1405 3.570331 2.64864 1.72695 0.8052589 0 0 0 0 0 0 0 0 0 0.005622982 0.6462002 1.006675 1.36071 1.510459 1.613392 1.777815 2.069696 2.372463 2.642655 2.859393 3.076132 3.29287 3.509609 3.726347 3.943085 4.159824 4.308942 4.454804 4.607566 4.765563 4.830666 4.888165 4.945664 5.003163 5.060662 5.118162 5.175661 5.23316 5.290659 5.286353 5.241445 5.78412 6.472918 7.161716 7.850514 8.539312 9.228111 9.916909 10 10 10 10 10 10 10 10 10 10 10 10 10 10 10 10 10 10 10 10 10 10
10 10 10 10 10 10 10 10 10 10 11.3327 10.74338 11.65753 12.75011 12.9148 11.12653 10 10 11.62225 14.09349 14.97629 13.9815 11.87255 10.01099 10 10.04869 11.18662 12.32455 14.03146 16.3652 18.69894 20 20 20 20.9223 25.69201 30.84694 35.20634 34.70755 31.64915 25.22967 22.49435 20.84752 16.8343 14.86106 14.38674 14.86901 14.43637 10.16691 10 10 10 10 10 10 10 10 10 10 9.552896 9.378385 9.224003 9.06962 8.915238 8.760857 8.606475 8.452092 8.4751 8.404939 8.233854 8.020841 7.716237 7.423994 7.146894 6.877523 6.577089 6.264624 5.988015 5.828052 5.668089 5.508126 5.336297 4.908527 4.203784 3.282094 2.360403 1.438712 0.3782997 0 0 0 0 0 0 0 0 0 0.9861391 1.318311 1.697366 1.910401 2.013333 2.116266 2.25069 2.539608 2.842375 3.112193 3.328931 3.54567 3.762408 3.979146 4.195885 4.412623 4.595886 4.745612 4.896764 5.034245 5.158537 5.216036 5.273535 5.331035 5.388534 5.446033 5.503532 5.561031 5.618531 5.592119 5.552094 6.172045 6.860843 7.549641 8.23844 8.927238 9.616035 10 10 10 10 10 10 10 10 10 10 10 10 10 10 10 10 10 10 10 10 10 10 10
10 10 10 10 10 10 10 10 10 10 10 10 10 10 10 10 10 10 10 10 10.5902 10 10 10 10 10 10.65465 12.87584 15.20958 17.54332 19.87706 20 20 20 20 26.65983 33.6902 42.36381 45.64268 41.72773 40.35601 36.95317 31.09893 26.80809 25.5003 23.6549 20 15.96049 10.83449 10 10 10 10 10 10 19.07867 27.53318 26.90449 17.90649 10 9.923287 9.768905 9.614523 9.460141 9.305759 9.151377 9.014245 9.125855 9.07169 8.895864 8.682224 8.425084 8.120799 7.851428 7.582057 7.275651 6.953746 6.775199 6.615236 6.455273 6.29531 6.117543 5.676555 4.837237 3.915547 2.993856 1.953204 0.7678745 0 0 0 0 0 0 0 0 0 1.053629 1.654122 2.00452 2.336464 2.413275 2.516208 2.61914 2.723565 3.00952 3.312287 3.581731 3.798469 4.015208 4.231946 4.448684 4.665423 4.882161 5.035702 5.180103 5.324666 5.472711 5.543908 5.601407 5.658906 5.716405 5.773904 5.831404 5.888903 5.946402 5.920957 5.871171 6.55997 7.248768 7.937566 8.626365 9.315163 10 10 10 10 10 10 10 10 10 10 10 10 10 10 10 10 10 10 10 10 10 10 10 10
10 10 10 10 10 10 10 10 10 10 10 10 10 10 10 10 10 10 10 10 10 10 10 10 10 10.75784 13.52645 14.05395 16.38769 18.72143 20 20 20 20 20 27.63277 36.03387 45.10691 50 50 48.92108 42.51417 35.68909 30 30 28.14884 20.11943 15.48585 10 10 10 10 10 10 14.31204 26.87209 40 35.67001 23.29274 12.67176 10 10 10 10 9.850661 9.69628 9.665001 9.776612 9.7658 9.611212 9.375954 9.094704 8.825333 8.555962 8.271482 7.972281 7.722345 7.562383 7.40242 7.242457 7.082494 6.894867 6.392381 5.470691 4.549 3.528108 2.525326 1.468507 0.3320812 0 0 0 0 0 0 0 0 1.017764 2.001021 2.316157 2.683543 2.813217 2.916149 3.019082 3.122015 3.224947 3.479433 3.782199 4.051269 4.268007 4.484746 4.701484 4.918222 5.134961 5.322641 5.47084 5.619729 5.746855 5.871779 5.929278 5.986777 6.044277 6.101776 6.159275 6.216774 6.274273 6.245656 6.259097 6.947895 7.636693 8.325491 9.014289 9.703088 10 10 10 10 10 10 10 10 10 10 10 10 10 10 10 10 10 10 10 10 10 10 10 10
10 10 10 10 10 10 10 10 10 10 10 10 10 10 10 10 10 10 10 10 10 10 10 10 12.70216 15.88663 18.70515 19.16885 18.83371 19.89955 20 20 20 20 20 27.2014 38.88317 49.50083 50 50 46.13177 39.08136 30.33132 26.04394 26.56735 27.7795 20.9738 19.04813 10 10 10 10 10 10 17.19799 27.6625 40 40 28.13026 17.97055 10 10 10 10 10.85884 16.05028 16.82957 21.30057 22.08797 18.61761 11.76749 9.799238 9.529866 9.260495 8.989091 8.669492 8.509529 8.349566 8.189604 8.029641 7.869678 7.670516 7.025835 6.104144 5.103013 4.282778 3.306167 2.173855 1.050557 0 0 0 0 0 0 0 0 0.9818994 2.101635 2.662044 3.003401 3.213158 3.316091 3.419024 3.521956 3.624889 3.727822 3.949345 4.252111 4.520807 4.737545 4.954284 5.171022 5.387761 5.604499 5.762462 5.905403 6.041765 6.179859 6.257149 6.314649 6.372148 6.429647 6.487146 6.544645 6.60215 6.567737 6.647021 7.335819 8.024617 8.713416 9.402214 10 10 10 10 10 10 10 10 10 10 10 10 10 10 10 10 10 10 10 10 10 10 10 10 10
10 10 10 10 10 10 10 10 10 10 10 10 10 10 10 10 10 10 10 10 10 10 10 12.20687 16.49028 20.68211 25.44809 29.5624 26.97114 23.6398 20 20 20 20 20 24.87886 38.01828 47.07097 50 50 43.1987 33.02952 23.30441 20 20 20 20 15.45588 10 10 10 10 10 10 18.30645 28.66514 40 40 30.13132 18.08511 10 10 10 12.88354 19.96164 30.23693 31.57432 30 26.66222 20.69702 12.32885 10 10 9.96503 9.679748 9.456676 9.296713 9.13675 8.976788 8.816825 8.656862 8.442388 7.659288 6.735356 6.03717 5.143827 4.016743 2.910458 1.782247 0.4530502 0 0 0 0 0 0 0 0.9460347 2.06577 3.015903 3.314002 3.608168 3.716033 3.818965 3.921898 4.024831 4.127763 4.230696 4.43247 4.722023 4.990345 5.207083 5.423821 5.64056 5.857298 6.049396 6.196067 6.342693 6.467112 6.585021 6.64252 6.700019 6.757518 6.815018 6.872517 6.930143 6.889819 7.034946 7.723744 8.412542 9.10134 9.790139 10 10 10 10 10 10 10 10 10 10 10 10 10 10 10 10 10 10 10 10 10 10 10 10 10
10 10 10 10 10 10 10 10 10 10 10 10 10 10 10 10 10 10 10 10 10 10 11.05979 14.473 18.94147 20.65815 25.80903 28.00481 28.01602 30 29.61431 24.3161 20 20 20 20.53305 32.43076 40.88917 45.2679 50 44.00034 33.01229 24.48176 20 20 20 13.49482 10 10 10 10 10 10 10 16.76719 25.01279 40 40 33.70951 19.27312 10.14378 10 11.30651 18.21443 25.75795 35.7698 39.61953 31.86755 23.34536 20 15.88394 17.97732 23.63514 24.06993 13.3459 10 10 9.923934 9.763971 9.604009 9.444046 9.214432 8.427988 7.781237 6.981487 5.867766 4.759995 3.440294 2.111096 0.7818993 0 0 0 0 0 0 0 0.91017 2.029905 3.149641 3.669966 4.003968 4.115974 4.218907 4.32184 4.424772 4.527705 4.630638 4.733571 4.912666 5.191936 5.459883 5.676621 5.89336 6.110098 6.326837 6.489222 6.630702 6.760768 6.887346 6.970391 7.027891 7.08539 7.142889 7.200388 7.244393 7.209107 7.422871 8.11167 8.800467 9.489265 10 10 10 10 10 10 10 10 10 10 10 10 10 10 10 10 10 10 10 10 10 10 10 10 10 10
10 10 10 10 10 10 10 10 10 10 10 10 10 10 10 10 10 10 10 10 10 11.06334 13.90793 17.13974 20 20 21.44053 21.51532 22.86755 26.83874 30 30 25.09832 20 20 21.49488 27.54398 32.59785 37.67359 47.63043 47.79387 37.39331 30.76876 23.39164 20 19.78863 13.32221 10 10 10 10 10 10.7145 11.28141 14.15043 21.71589 39.35037 40 40 20.01787 10 10 13.21739 22.13177 31.95755 40 40 33.50657 25.82843 21.52064 23.07754 28.65605 30 23.98053 11.53667 10 10 10 10 10 10 10 9.544014 8.819147 7.712225 6.427536 5.09834 3.769143 2.439945 1.110749 0 0 0 0 0 0 0 0.8743052 1.994041 3.113776 4.030786 4.311848 4.560047 4.618849 4.721781 4.824714 4.927647 5.03058 5.133512 5.236445 5.385541 5.661848 5.929421 6.146159 6.362897 6.579636 6.776151 6.921709 7.065658 7.18737 7.298263 7.355762 7.413261 7.47076 7.52826 7.550343 7.528118 7.810796 8.499594 9.188393 9.877191 10 10 10 10 10 10 10 10 10 10 10 10 10 10 10 10 10 10 10 10 10 10 10 10 10 10
10 10 10 10 10 10 10 10 10 10 10 10 10 10 10 10 10 10 10 10 10 11.6146 14.98049 18.33969 20 20 20 20 22.54088 26.93508 30 30 29.3856 25.78639 20 23.76899 28.70407 30 33.8309 43.79256 50 44.99368 36.68058 30.27457 25.84364 21.82423 15.13652 10 10 10 10 18.62647 27.2862 23.35746 20 20 38.41128 40 34.52622 17.53363 10 10 16.2605 26.02807 40 40 34.19855 31.26439 28.13974 29.12436 30 30 29.15294 19.06378 10 10 10 10 10 10 10.76851 16.45603 19.733 9.417574 8.09039 6.763207 5.436025 4.100897 2.720715 1.340532 0 0 0 0 0 0 0 0.8384405 1.958176 3.077911 4.197647 4.636263 4.94779 5.01879 5.121723 5.224656 5.327589 5.430521 5.533454 5.636386 5.739319 5.858417 6.13176 6.398959 6.615697 6.832436 7.049174 7.215982 7.356002 7.483733 7.605044 7.683633 7.741133 7.798632 7.856131 7.870593 7.844054 8.198721 8.887519 9.576317 10 10 10 10 10 10 10 10 10 10 10 10 10 10 10 10 10 10 10 10 10 10 10 10 10 10 10
10 10 10 10 10 10 10 10 10 10 10 10 10 10 10 10 10 10 10 10 10 11.12585 14.42609 17.44471 19.1221 19.97429 20 20 21.00669 23.95457 26.65983 25.16271 25.82037 24.87782 20.0995 25.60887 30 30 32.10661 38.5617 47.51531 50 41.05416 35.02035 29.07291 21.97119 15.22687 10 10 10 10 22.29961 38.01151 35.97638 26.33887 20 35.06953 40 29.1323 16.70475 11.99095 12.13256 19.37064 30.62906 40 39.75414 27.96861 23.12127 20.6639 22.43323 25.98295 26.27875 21.33957 10.91996 10 10 10 10 10 16.16226 17.03756 18.93541 17.83965 9.442273 8.017147 6.578221 5.181138 3.784055 2.371059 0.9782028 0 0 0 0 0 0 0 0.8025758 1.922311 3.042047 4.161782 5.022173 5.310003 5.430265 5.521665 5.624598 5.72753 5.830463 5.933395 6.036328 6.139261 6.242194 6.345126 6.601672 6.868497 7.085235 7.301974 7.502906 7.648497 7.788083 7.907628 8.011505 8.069004 8.126503 8.184002 8.198114 8.158818 8.586645 9.275444 9.964242 10 10 10 10 10 10 10 10 10 10 10 10 10 10 10 10 10 10 10 10 10 10 10 10 10 10 10
10 10 10 10 10 10 10 10 10 10 10 10 10 10 10 10 10 10 10 10 10 10 12.71525 15.04874 16.62503 17.60248 18.55991 19.51734 20 20.30626 21.07813 20 20 20 20.86713 23.82139 28.13121 28.19144 28.06336 33.44389 42.57658 50 43.84311 35.81749 29.28529 22.50491 15.61349 10 10 10 12.92356 25.78145 40 40 32.30729 24.92216 39.03693 40 25.22578 16.9833 15.65341 16.94366 24.98056 37.24031 40 34.81271 25.5997 18.4524 14.14701 14.1932 16.44637 15.08216 11.53507 10 10 10 10 10 13.17697 20.57818 28.69019 25.6468 16.9938 9.174107 7.679474 6.184842 4.727344 3.329487 1.93163 0.5337729 0 0 0 0 0 0 0 0.766711 1.886446 3.006182 4.125917 5.245653 5.62133 5.855626 5.921607 6.024539 6.127472 6.230404 6.333337 6.43627 6.539203 6.642135 6.745068 6.848001 7.071584 7.338035 7.554773 7.771512 7.942742 8.081302 8.206697 8.322742 8.396875 8.454374 8.511873 8.523122 8.471043 8.97457 9.663368 10 10 10 10 10 10 10 10 10 10 10 10 10 10 10 10 10 10 10 10 10 10 10 10 10 10 10 10
10 10 10 10 10 10 10 10 10 10 10 10 10 10 10 10 10 10 10 10 10 10 10.19218 12.54118 14.24868 15.23067 16.1881 17.0996 17.67396 17.84059 19.14563 20 20 20 20 20 20 22.12095 24.54859 30.4525 38.30728 46.55462 45.57359 37.7613 32.04734 22.79997 15.92609 10.28161 10 10 14.60675 24.12451 32.44544 37.87281 40 30 40 36.30777 22.12308 20 19.33194 20.5096 30.92757 40.36575 40 33.32258 26.16979 19.70512 14.1088 10 10 10 10 10 10 10 10 10 11.37323 18.4986 24.57081 25.41333 17.05023 9.10378 7.56601 6.027872 4.485962 2.937465 1.439252 0.03968379 0 0 0 0 0 0 0 0.7308463 1.850582 2.970317 4.090053 5.209788 6.010804 6.310571 6.321548 6.424481 6.527413 6.630346 6.733279 6.836212 6.939144 7.042077 7.14501 7.247942 7.350875 7.541496 7.807573 8.024311 8.229661 8.375285 8.510025 8.627885 8.724747 8.782246 8.839745 8.845204 8.781107 9.362495 10 10 10 10 10 10 10 10 10 10 10 10 10 10 10 10 10 10 10 10 10 10 10 10 10 10 10 10 10
10 10 10 10 10 10 10 10 10 10 10 10 10 10 10 10 10 10 10 10 10 10 10 10.27893 11.87232 12.85887 13.66311 14.54506 15.1325 15.5955 18.12243 20 20 20 20 20 20 20 23.24326 30.06555 36.6945 44.75539 50 42.55984 33.12016 22.51079 14.03337 10 10 10 14.33671 19.24484 24.75622 33.89029 40 40 40 32.02661 20.15138 20 20 26.50637 36.87371 47.45565 46.22505 40 35.62944 28.67484 20.37072 11.45185 10 10 10 10 10 10 10 10 10 15.55749 20 20 16.8302 8.855462 7.195327 5.654932 4.114536 2.57414 1.033744 0 0 0 0 0 0 0 0 0.6949816 1.814717 2.934452 4.054188 5.173923 6.293658 6.619175 6.78363 6.824422 6.927355 7.030288 7.133221 7.236153 7.339086 7.442019 7.544951 7.647884 7.750817 7.853749 8.016015 8.277111 8.493849 8.669501 8.806601 8.929663 9.040439 9.110117 9.167661 9.167286 9.089336 9.750421 10 10 10 10 10 10 10 10 10 10 10 10 10 10 10 10 10 10 10 10 10 10 10 10 10 10 10 10 10
10 10 10 10 10 10 10 10 10 10 10 10 10 11.28537 13.48578 14.33176 10 10 10 10 10 10 10 10 10 10.36174 11.05669 12.02937 12.61366 14.5723 17.09923 19.62616 20 20 20 20 20 20 23.88902 30.09587 36.35073 44.83946 50 43.9507 29.38925 20 15.29541 10.29313 10.67769 11.69836 13.90741 18.10904 25.30102 34.96101 46.04121 50 41.00562 27.8516 20 20 24.57983 33.78268 44.06935 50 43.28092 37.0828 34.55492 30 21.99664 11.24269 10 10 10 10 10 10 10 10 10 15.38227 20 20 10.08494 8.425421 6.83444 5.254474 3.560647 2.020252 0.479856 0 0 0 0 0 0 0 0 0.6591168 1.778852 2.898587 4.018323 5.138058 6.257794 7.017402 7.212036 7.224364 7.327297 7.43023 7.533162 7.636095 7.739028 7.84196 7.944893 8.047826 8.150759 8.253691 8.356624 8.500841 8.746649 8.956416 9.102074 9.231967 9.348143 9.437988 9.495653 9.489367 9.449547 10 10 10 10 10 10 10 10 10 10 10 10 10 10 10 10 10 10 10 10 10 10 10 10 10 10 10 10 10 10
10 10 10 10 10 10 10 10 10 10 10 10.70971 12.90676 15.28483 17.65106 20 16.35225 10 10 10 10 10 10 10 10 10 10 10 11.02218 13.54911 16.07603 18.60296 20 20 20 20 20.13929 24.52131 29.69494 35.13731 38.79685 47.56393 49.82949 38.74161 23.77044 20 18.79926 15.35709 15.30378 15.57383 16.13428 18.13351 23.549 34.08294 48.64687 50 37.38293 26.89499 21.00913 25.22442 34.28654 45.74833 50 45.0017 35.60377 29.93156 26.92999 22.52621 17.42575 10.52677 10 10 10 12.09336 19.29509 15.028 10 10 10 13.27194 20 20 9.735124 8.037489 6.339854 4.675302 3.118961 1.523808 0 0 0 0 0 0 0 0 0 0.6232521 1.742988 2.862723 3.982458 5.102194 6.221929 7.341664 7.617021 7.653848 7.727239 7.830171 7.933104 8.036036 8.138969 8.241902 8.344834 8.447767 8.5507 8.653633 8.756565 8.859498 8.985668 9.216187 9.396262 9.5319 9.652627 9.758136 9.819275 9.808488 9.837472 10 10 10 10 10 10 10 10 10 10 10 10 10 10 10 10 10 10 10 10 10 10 10 10 10 10 10 10 10 10
10 10 10 10 10 10 10 10 10 10 10.05586 11.63793 13.57674 15.51556 17.52763 19.64029 20 17.3671 11.72705 10 10 10 10 10 10 10 10 10 10.13682 12.68069 15.22456 17.57976 20 20 20 20.41773 24.75262 29.40702 36.93481 43.8483 40 44.47159 40.45277 29.37052 20 20 22.67484 21.54861 18.88885 19.4493 20 20 24.44147 32.6199 45.72968 50 39.41294 29.27003 29.62101 32.71208 49.18373 50 41.74506 34.76096 28.04108 22.02571 19.52238 16.40197 13.598 10 10 10 13.99429 17.21241 24.97115 25.3073 16.95444 10 10 10.78936 17.03075 20 9.473152 7.602688 5.752305 4.08267 2.551761 0.9185851 0 0 0 0 0 0 0 0 0 0.5873873 1.707123 2.826858 3.946594 5.066329 6.186064 7.305799 8.02396 8.103083 8.12718 8.230113 8.333046 8.435978 8.538911 8.641844 8.744777 8.847709 8.950642 9.053575 9.156507 9.259439 9.362372 9.466144 9.683171 9.828861 9.956776 13.27634 16.99843 16.38885 10.07637 10 10 10 10 10 10 10 10 10 10 10 10 10 10 10 10 10 10 10 10 10 10 10 10 10 10 10 10 10 10
10 10 10 10 10 10 10 10 10 10 10.13433 12.4069 14.06103 15.99985 17.93867 19.87749 20 20 18.98489 13.42443 10.74385 11.0267 10 10 10 10 10 10 10 11.89419 14.49124 17.08829 19.86047 20 22.57473 25.6603 29.84729 37.14094 45.8442 49.7135 42.2919 34.63422 30.42448 22.48323 20 26.96638 33.64914 29.8952 20 20 20 20 22.82104 29.7613 39.22795 50 46.32671 32.4053 30 38.75624 54.73769 52.30128 36.98286 28.44493 23.45918 20 19.4095 15.66068 11.9729 10 10 14.18166 20.31114 24.18506 32.2258 38.48109 26.11446 15.69939 10.94922 10 15.96382 20 9.475862 7.506768 5.557889 3.650458 1.734512 0 0 0 0 0 0 0 0 0 0 0.5515226 1.671258 2.790993 3.910729 5.030464 6.150199 7.269935 8.38967 8.58596 8.527122 8.630054 8.732987 8.83592 8.938852 9.041785 9.144718 9.247651 9.350583 9.453516 9.556449 9.659382 9.762314 9.865247 9.96818 13.89252 21.71258 30.09087 36.25734 35.70782 21.1897 10 10 10 10 10 10 10 10 10 10 10 10 10 10 10 10 10 10 10 10 10 10 10 10 10 10 10 10 10 10
10 10 10 10 10 10 10 10 10 10 10.2128 12.48537 14.75794 16.48414 18.42296 20 20 20 19.16546 14.74618 13.91062 13.82875 11.92377 10 10 10 10 10 10 10.0595 12.5732 15.25991 17.86579 20.23215 25.54333 30 36.85481 47.05227 50 47.34774 39.41099 29.50983 23.12284 20 27.41224 39.81252 42.9616 34.00579 20.20052 20 20 22.69567 22.77085 27.4151 34.63081 50 50 36.23467 33.69615 45.21966 60 54.49183 38.16842 29.5811 23.87824 20 19.29662 15.93177 13.3026 13.33813 15.708 18.85193 25.76464 32.63536 40.20977 40 34.27436 20.13527 14.95964 10.42544 13.09915 15.72437 9.783987 7.770401 5.753953 3.732581 1.716805 0 0 0 0 0 0 0 0 0 0 0.4352033 1.515582 2.755129 3.874864 4.994599 6.114335 7.23407 8.353806 8.988312 9.007213 9.029996 9.132929 9.235862 9.338795 9.441727 9.54466 9.647593 9.750525 9.853457 9.95639 10 10 10 10 14.33786 23.70136 35.74289 40 40 36.44651 18.686 10 10 10 10 10 10 10 10 10 10 10 10 10 10 10 10 10 10 10 10 10 10 10 10 10 10 10 10 10
10 10 10 10 10 10 10 10 10 10 10.29127 12.56384 14.83641 17.10898 18.90725 20 20 20 20 17.53241 17.0774 16.35481 14.11948 10.83643 10 10 10 10 10 10 10.65852 13.20179 15.97381 19.35207 23.86024 29.27041 38.27296 50 49.95329 42.75212 34.20406 30 27.64523 27.00101 37.28671 46.79849 50 37.13427 22.87182 20 23.63494 28.95194 27.40616 30 31.72364 42.09198 50 43.3562 39.49558 52.76102 69.98443 58.23523 49.12322 41.09399 36.34146 27.64709 19.87803 19.15096 19.553 19.95504 24.31447 30.36252 36.98688 42.55973 46.60103 40.75211 32.26762 20 17.71165 13.23753 10 10 9.724815 7.800376 5.875937 3.951498 2.027059 0.09572878 0 0 0 0 0 0 0 0 0.3419991 1.344415 2.341856 3.333852 4.398689 5.111681 6.07847 7.198205 8.317941 9.437676 9.476282 9.429938 9.53287 9.635803 9.738736 9.841669 9.944601 10 10 10 10 10 10 10 10 10 17.4017 29.09046 40 40 39.04103 28.81858 13.66021 10 10 10 10 10 10 10 10 10 10 10 10 10 10 10 10 10 10 10 10 10 10 10 10 10 10 10 10
10 10 10 10 10 10 10 10 10 10 10.36974 12.64231 14.91488 17.18753 19.5587 21.18323 21.49537 26.82955 24.9821 20.77454 20.55829 19.05247 17.08919 14.0683 11.92207 10.76633 10 10 10 10 10 11.07312 14.91268 18.75609 23.91275 29.55017 38.72617 46.86766 42.92223 40 39.72474 38.77087 35.98781 34.57451 42.82889 52.52124 55.52312 39.19419 25.17196 20 25.78018 32.96132 32.41721 30 30.61382 39.22517 51.89252 55.94697 53.70063 59.44407 70 65.13393 56.74481 47.97096 39.13165 29.05579 20 20 20 20 23.57159 30.86174 37.68132 45.89165 50 43.047 32.84784 24.11976 21.05485 15.51423 10 10 9.749243 7.824803 5.900364 4.046216 2.261644 0.4362445 0 0 0 0 0 0 0 0.1745552 0.9702065 1.965099 2.963453 4.21165 5.230111 6.227551 7.42495 8.231931 8.902299 9.528622 9.952663 9.877431 9.932813 10 10 10 10 10 10 10 10 10 10 10 10 10 10.52074 20.97233 32.57201 40 40 34.11243 20.69133 10 10 10 10 10 10 10 10 10 10 10 10 10 10 10 10 10 10 10 10 10 10 10 10 10 10 10 10
10 10 10 10 10 10 10 10 10 10 11.01684 13.86024 16.55449 18.96599 22.44371 26.90784 28.46209 33.43222 32.1554 28.14618 26.39488 24.00876 19.24761 16.34366 14.85275 14.1947 13.17215 11.59015 10 10 10 11.90115 15.28837 18.39456 22.96681 29.82689 38.02165 40 40 40 40 40 40 42.59864 48.61288 59.13694 65.43799 45.63547 30.5093 23.42902 27.62606 35.57689 39.36367 35.29952 32.84 38.81716 52.93606 65.14425 68.82949 70 64.90714 56.49757 46.75803 39.10613 30.49115 22.28876 20 20 20 20 20.76971 28.56702 39.03084 49.1956 50 49.00827 39.67563 32.95016 26.44485 16.57306 10 10 9.773669 8.037845 6.27887 4.534664 2.781464 1.433702 0.3690092 0 0 0 0 0 0.2360354 0.8592738 1.583719 2.473476 3.319589 4.399223 5.454276 6.621976 7.880844 9.115806 10.55049 16.8962 20 18.89237 12.61235 10 10 10 10 10 10 10 10 10 10 10 10 10 10 14.17827 22.84481 33.43833 40 38.12888 24.853 10.51354 10 10 10 10 10 10 10 10 10 10 10 10 10 10 10 10 10 10 10 10 10 10 10 10 10 10 10
10 10 10 10 10 10 10 10 10 12.46598 15.42825 17.40956 19.05061 23.78815 29.9728 34.92393 36.25809 40.77759 40.11193 36.1185 32.38076 27.21964 20.34455 18.89139 18.23333 17.57528 17.22633 18.21057 17.1134 12.88698 12.15396 13.32461 14.55778 17.10837 19.72309 27.96202 34.75444 35.80611 36.34519 40 40 39.76942 40.55162 47.62032 54.09175 63.42931 70 55.29321 38.2195 30 30 39.63401 47.13379 42.54671 39.45249 40 53.07663 65.19656 70 67.29078 54.55707 42.0042 36.48968 30.70117 24.54562 20 20 20 20 20.71252 28.80568 30.38057 40.40726 50 50 45.91776 36.44004 31.18779 24.3436 15.4146 11.48745 16.86466 13.3242 8.504847 6.599745 5.050067 3.736099 2.592483 1.313302 0.6322649 0.5603926 0.6372809 0.7141692 0.7394164 0.9238381 1.61283 2.227645 2.987309 3.741393 4.752477 5.668972 6.758558 7.898083 9.021632 11.3356 18.47908 24.02037 25.35891 19.02508 10 10 10 10.80254 10 10 10 10 10 10 10 10 10 10 10 15.37386 22.87245 32.50265 33.57019 25.21327 14.04629 10 10 10 10 10 10 10 10 10 10 10 10 10 10 10 10 10 10 10 10 10 10 10 10 10 10 10
10 10 10 10 10 10 10 10 10 17.59822 21.41237 24.5111 27.92841 31.96329 39.45177 45.22337 46.77857 49.15715 50 44.90933 38.42799 32.70233 24.03048 20 20 20 21.84727 28.28635 27.93792 19.65166 16.45629 17.68946 18.92263 20 20 26.16655 30 30.28235 31.09704 34.4929 34.63199 32.87547 38.493 45.21656 49.70926 56.79071 68.81636 63.7153 47.46033 35.20293 31.42963 40.19353 51.03572 52.83674 44.85689 43.94697 55.12251 70 67.67654 62.58261 51.25765 36.97052 30.39883 28.63859 22.96032 20 20 20 21.39001 28.55773 33.84585 41.9035 45.38903 51.48457 57.34459 45.96666 32.4906 30 20 20 18.53735 20 11.87544 8.417889 6.822026 5.380742 3.9438 2.525637 1.72804 1.363559 1.408099 1.484987 1.52556 1.539263 1.552966 1.929937 2.868029 3.580359 4.302927 5.141193 6.008535 7.031477 8.018355 9.117892 12.26838 20.98384 28.52034 30 19.4539 11.21883 10 13.74961 16.03476 11.01924 10 10 10 10 10 13.72381 12.14648 10 10 10 10 15.59847 23.0498 28.12372 24.93251 16.86694 10 10 10 10 10 10 10 10 10 10 10 10 10 10 10 10 10 10 10 10 10 10 10 10 10 10 10
10 10 10 10 10 10 10 17.4349 20 25.00616 29.33368 30 34.309 38.17909 44.90144 50 48.4707 48.55272 49.44019 47.85876 40.90165 34.58624 25.82771 20 20 20 27.10321 38.09697 40 29.1332 20 20 20 20 20 21.08454 26.42922 26.74653 26.66816 29.34906 29.34402 30 35.68793 40.15054 44.57208 50.66571 61.93333 70 54.1289 41.02344 37.92082 41.15046 53.34074 65.1244 58.20129 55.17144 64.55652 70 56.3701 51.4692 46.03939 33.10331 30 30 23.502 20 20.42762 23.54746 29.52137 36.41087 42.00222 49.70359 56.32671 59.37876 56.97554 51.58123 44.24833 35.55636 23.19011 20 20 19.24436 9.448181 8.01124 6.574298 5.137356 3.80787 2.819618 2.270625 2.178917 2.255805 2.311704 2.325407 2.33911 2.352813 2.366515 2.95314 3.934068 4.823549 5.630943 6.451325 7.295184 8.287536 9.310478 13.37578 23.57953 33.95478 30 20.76644 11.37856 10.2629 16.44532 20 17.08622 10 10 10 10 14.87859 20 20 17.11545 11.14 10 10 10 16.02759 21.50696 20 20 20 14.96093 10 10 10 10 10 10 10 10 10 10 10 10 10 10 10 10 10 10 10 10 10 10 10 10 10
14.54363 10 10 10 10 10 10 16.64462 22.6763 27.07611 30 30 34.88992 39.76242 41.1869 39.74311 39.10443 40.79016 39.96737 38.14466 34.69512 28.32025 20.68419 20 20 20 26.82351 37.08212 40 30.88631 20.26287 20 20 20 20 20 20 20 22.43849 24.61007 25.74607 27.99664 32.20837 36.07677 39.95348 48.1467 59.13267 70 60.50509 48.52851 40.43922 42.88254 52.43327 70 74.67139 72.28252 76.2681 71.33791 51.93858 40 36.51043 30 32.06307 34.45148 29.91714 24.7301 26.9589 31.69398 41.31971 47.45708 51.79536 60 60 51.47725 46.13585 43.25405 40.16537 34.01558 23.03361 20 20 10 9.204796 7.767854 6.330912 5.090103 4.091156 3.447634 2.949735 3.026624 3.097848 3.111551 3.125253 3.138956 3.152659 3.166362 3.34556 4.019179 5.000108 5.958147 6.898534 7.746581 8.638279 9.553423 16.24959 26.80725 40 33.85247 23.12259 13.12357 16.16617 20.51539 20 16.99344 11.47568 10 10 10 15.42574 20 20 20 18.87561 13.72232 10 10 13.16992 17.00846 20 20 20 20 14.56536 10 10 10 10 10 10 10 10 10 10 10 10 10 10 10 10 10 10 10 10 10 10 10 10
18.82636 10 10 10 10 10 10 13.3994 20.62088 23.96896 26.94314 30.00107 32.64887 33.76521 32.66208 30.63082 30.25596 31.50297 30 30 27.1041 22.00638 20 20 20 20 26.02193 34.2274 35.14207 30.28211 21.47241 20 20 20 20 20 20 20 20 20.09777 22.44094 25.70884 29.26303 33.41331 39.00437 48.35678 59.16985 70 67.54572 55.5309 48.08332 47.70063 52.54978 66.64806 80 86.08858 83.7338 74.20397 56.59796 44.6685 38.6895 39.80628 46.29515 39.6096 30.32728 30.09794 34.76631 41.932 50 57.30984 60 60 60 48.40572 40 33.50757 30.73621 30 20.19381 25.04943 22.10957 10 8.961411 7.524468 6.372275 5.362695 4.664739 3.990175 3.797442 3.87433 3.897695 3.911397 3.9251 3.938803 3.952506 3.966209 3.979912 4.37293 5.085218 6.066147 7.047076 8.034268 9.014547 9.915342 20.98477 29.63217 40 35.06831 24.08007 21.28891 25.23681 27.52514 20.4097 16.73268 11.65337 10 10 10 15.24292 20 20 20 20 17.25223 14.37671 13.81475 16.02388 19.71547 20 20 20 20 14.12061 10 10 10 10 10 10 10 10 10 10 10 10 10 10 10 10 10 10 10 10 10 10 10 10
16.29391 10 10 10 10 10 10 10 15.98748 18.76286 21.30196 24.9108 26.02897 24.84348 22.96707 22.14549 23.81008 29.57356 25.9034 25.07138 21.625 20 20 20 20 20 22.58536 30.68645 30 29.65408 20.2963 20 20 20 20 20 20 20 20 20 20.52295 23.77447 27.32888 33.06406 39.03309 48.92129 60.4038 75.12166 76.00797 65.85018 58.43135 57.38834 58.68744 64.60144 78.87035 90 85.9618 73.77453 57.38902 47.23656 50.62989 56.56163 51.94472 40 35.82245 41.97462 46.87437 50 50 51.60061 54.12364 58.49989 60 58.37989 45.40964 35.40291 30.5006 30 29.46283 39.05071 24.62085 10 8.718024 7.653868 6.634234 5.881845 5.064905 4.56826 4.645148 4.683838 4.697541 4.711244 4.724947 4.73865 4.752353 4.766056 4.779758 4.793461 5.367177 6.151258 7.132186 8.113115 9.083063 12.06261 22.27178 28.78637 34.79635 32.31085 29.65636 29.47831 33.06462 32.62133 26.05131 19.46552 14.80225 11.61858 10 12.80104 17.88974 23.58882 25.44688 24.60111 24.68018 24.06296 20.41664 17.84894 18.82595 20 20 20 20 18.47883 12.59823 10 10 10 10 10 10 10 10 10 10 10 10 10 10 10 10 10 10 10 10 10 10 10 10
14.46762 10 10 10 10 10 10 10 11.46491 14.22302 17.07732 19.43003 20 20 20 20 20 27.58342 26.51396 20.3332 20 20 20 20 20 20 24.72615 30 32.55604 32.5222 25.77729 20 20 20 20 20 20 20 20 20 20 21.36917 26.32332 32.30693 38.75196 48.46411 60.70468 75.3729 80 78.92702 76.03932 75.18486 73.83843 73.71443 80.57667 90 84.75612 70.63244 60 62.46909 69.46253 67.76962 51.63447 40 50 50 50 47.51187 39.1362 38.86551 44.21692 49.65261 52.30263 55.19864 50 50 46.80543 45.38755 45.08537 41.84053 27.80659 9.989871 8.935461 7.905772 7.008718 6.263002 5.59023 5.415967 5.469982 5.483685 5.497388 5.511091 5.524794 5.538496 5.552199 5.565902 5.579605 5.593308 5.60701 6.366577 7.217297 8.198226 9.179154 10.91326 20.75168 24.9031 28.97471 30 33.32412 36.80861 40 39.87428 31.34219 23.99604 18.22501 14.21126 12.95477 15.05023 19.27212 24.86153 30 32.54002 33.76849 33.21749 28.91331 23.4257 20 20 20 20 20 18.44777 13.65903 10 10 10 10 10 10 10 10 10 10 10 10 10 10 10 10 10 10 10 10 10 10 10 10
13.13197 10 10 10 10 10 10 10 10 10.41291 13.28291 14.99111 17.64044 20 20 20 22.84437 27.40468 29.7202 25.82735 20 20 20 20 20 20 24.29372 30 37.93472 36.89351 27.64556 20 20 20 20 20 20 20 20 20 20 20 23.84088 30.35614 37.6686 46.83382 57.1939 70.1197 76.64919 80 80 80 89.89546 90 90 90 86.56052 78.19173 76.1116 74.28161 70 63.96095 57.9157 56.06482 52.08288 42.12663 42.61871 42.51781 33.35947 32.83689 36.52375 38.63835 39.12603 44.54895 50 50 50 50 46.07 41.27574 29.80117 12.99705 9.177311 8.266317 7.480108 6.701815 6.186784 6.256126 6.269829 6.283532 6.297235 6.310937 6.32464 6.338343 6.352046 6.365749 6.379452 6.393155 6.406857 6.603823 7.409988 8.283337 9.264265 10 13.56979 17.76278 23.20053 30.20729 36.43394 40 40 40 36.89713 28.72961 20.55633 16.34945 16.62654 18.3858 20 24.35329 31.0501 37.48359 40 40 36.4865 28.72616 20.64694 20 20 20 20 20 16.24467 12.59485 10 10 10 10 10 10 10 10 10 10 10 10 10 10 10 10 10 10 10 10 10 10 10
11.97202 10 10 10 10 10 10 10 10 10 10 11.79548 14.8924 17.98931 20 24.63978 30.03478 33.46367 35.63114 33.10236 27.29946 20.33017 20 20 20 20 25.65261 30 37.26134 36.53818 28.30758 20 20 20 20 20.84219 23.7837 22.21884 20 20 20 20 21.16083 27.76769 34.79457 40.54887 49.1614 56.15547 63.07133 67.48835 71.09132 76.34701 87.35593 88.05043 77.20296 74.40405 79.69121 80 80 72.15921 59.54873 53.97513 58.85973 59.6248 47.90395 38.50733 35.82035 37.95412 30.54158 28.32236 29.47982 28.89062 29.72306 36.13604 43.21907 43.32858 42.10497 37.04028 35.04067 38.931 34.24476 19.15397 9.537856 8.697214 7.870757 7.180151 7.034491 7.055973 7.069675 7.083378 7.097081 7.110784 7.124487 7.13819 7.151893 7.165596 7.179298 7.193001 7.206704 7.220407 7.631193 8.453399 9.349376 10 11.36227 16.26316 22.05026 29.97166 36.83014 37.88987 35.6305 33.90706 30.75324 30 25.21096 18.78293 20 20 20 22.96041 32.1931 39.01307 40 40 40 30.38055 21.00998 20 20 20 20 20 19.41144 15.08195 11.15077 10 10 10 10 10 10 10 10 10 10 10 10 10 10 10 10 10 10 10 10 10 10
10.06456 10 10 10 10 10 10 10 10 10 10 10.69608 13.8038 17.04991 20.66799 27.86026 33.43237 38.25711 40 40 35.07185 28.08434 22.9586 20 20 21.19749 28.05796 33.37523 40 37.88383 29.16115 20 20 20 20 21.82907 28.87739 29.08299 25.73189 22.61135 20 20 23.0348 27.16487 31.39962 35.18658 38.64584 43.72964 48.69448 55.84234 65.4437 75.26511 87.74915 86.59576 71.14783 59.52098 64.08392 71.30125 71.80176 63.1095 49.22691 41.61752 48.58394 47.21535 40.12779 30.51215 28.54713 29.26342 26.11703 20 20.6881 20 23.79125 30 36.69757 34.60064 31.37859 29.86553 30 36.94516 40 25.75925 9.914319 9.078371 8.338725 7.805309 7.842116 7.855819 7.869522 7.883225 7.896928 7.910631 7.924334 7.938036 7.951739 7.965442 7.979145 7.992848 8.006551 8.020253 8.033957 8.658563 9.49681 13.89012 14.38363 19.04286 24.314 29.91593 31.46588 29.39011 27.70771 28.42569 30 30 30.1303 22.3646 20 20 20 24.99966 34.2314 40 40 40 39.17374 29.65411 20.18255 20 20 22.05244 22.37465 22.30436 19.74151 15.97829 12.36448 10 10 10 10 10 10 10 10 10 10 10 10 10 10 10 10 10 10 10 10 10 10
10 10 10 10 10 10 10 10 10 10 10 10 12.35214 15.62094 18.78073 24.64007 31.89013 40 40 40 36.88282 30 26.60804 22.78099 20 23.45558 28.602 33.36756 40 40 30.80195 21.51465 20 20 20 21.79371 30 30 30.99956 28.11615 24.45571 21.74589 24.52552 27.91733 30 31.8405 35.36468 39.76711 45.95332 55.43329 68.93194 78.86369 96.2329 87.85444 70.15927 54.01727 51.11369 57.63291 62.12012 52.91196 41.19812 35.08738 36.40237 35.42521 30.39923 26.11407 22.78085 20 20 20 20 20 20 25.40299 30.50061 26.43826 23.34385 23.25937 27.04444 38.38134 43.30624 30.99782 14.97682 9.507667 8.792858 8.628261 8.641963 8.655666 8.669369 8.683072 8.696774 8.710477 8.72418 8.737883 8.751586 8.765288 8.778992 8.792694 8.806397 8.8201 8.833803 8.847506 9.685932 20 20 20 21.79021 25.8403 24.14543 22.08357 20.52086 25.16392 32.20296 36.6042 35.05046 27.20068 20.05213 20 20 28.20732 39.56456 40 40 40 36.09002 27.42477 21.24651 20.59942 23.16047 25.44622 28.51189 24.98917 19.30753 14.74787 10.65764 10 10 10 10 10 10 10 10 10 10 10 10 10 10 10 10 10 10 10 10 10 10
10 10 10 10 13.21715 19.03845 19.73197 10.99165 10 10 10 10 12.44767 15.09596 17.63331 19.68675 25.60225 32.09573 37.12349 36.37725 32.30909 30 30 26.6267 20 21.96913 26.1888 30 37.02688 40 34.09584 24.95548 20 20 20 21.94975 30 32.07412 34.9315 33.16813 28.56051 25.6654 26.77427 30 30 30 32.95015 37.75365 44.5137 54.08557 66.77179 78.38371 99.43197 95.20894 74.16444 58.06217 48.17788 41.50205 44.94772 38.92521 33.87355 30 30 29.03166 25.35129 21.47073 20 20 20 20 20 20 20 20 22.4465 20 20 20 27.43594 40.36545 50 39.91467 25.83301 9.968856 9.414404 9.428107 9.44181 9.455513 9.469215 9.482919 9.496621 9.510324 9.524027 9.537729 9.551433 9.565135 9.578838 9.592541 9.606244 9.619946 9.63365 9.647352 9.862086 20 20 20 20 20.93619 18.80224 19.11432 20 23.27878 31.49649 38.42281 40 32.37965 24.68107 20 20 29.74245 37.07214 40 40 40 33.69472 28.13969 25.22303 26.25318 28.34941 30 30 24.60389 18.82674 13.60363 10 10 10 10 10 10 10 10 10 10 10 10 10 10 10 10 10 10 10 10 10 10 10
